# .PCD v0.7 - Point Cloud Data file format
VERSION 0.7
FIELDS x y z
SIZE 4 4 4
TYPE F F F
COUNT 1 1 1
WIDTH 1337
HEIGHT 1
VIEWPOINT 0 0 0 1 0 0 0
POINTS 1337
DATA ascii
-0.44205582 -0.32693344 -0.313088
-0.46338466 -0.32065308 -0.31321481
-0.45646772 -0.32176358 -0.3138141
-0.45132446 -0.32306281 -0.31378725
-0.44485015 -0.32464978 -0.31322238
-0.46808133 -0.31744435 -0.31268367
-0.46664581 -0.31263155 -0.31148911
-0.46749496 -0.30972987 -0.31057572
-0.46433562 -0.30847791 -0.3138319
-0.45927596 -0.30581835 -0.31062099
-0.45459676 -0.3068682 -0.31378073
-0.44955319 -0.30877155 -0.31496388
-0.45802602 -0.30260745 -0.31236419
-0.46303183 -0.29634881 -0.31187978
-0.45800319 -0.29834226 -0.31304157
-0.47502255 -0.29063648 -0.31316423
-0.47134352 -0.29235286 -0.31487545
-0.46721873 -0.29281175 -0.31235605
-0.47657812 -0.28986287 -0.31474778
-0.47043681 -0.28504366 -0.31144699
-0.46727061 -0.28731403 -0.31270033
-0.46428001 -0.28860605 -0.31446645
-0.47740799 -0.28129447 -0.31391227
-0.47331512 -0.2823261 -0.31215215
-0.4687787 -0.28257254 -0.31234789
-0.46446034 -0.28240916 -0.31084821
-0.50680017 -0.27668256 -0.31165963
-0.50400329 -0.27709067 -0.31391814
-0.49402463 -0.27804902 -0.31067461
-0.48250949 -0.27813011 -0.31257313
-0.47751299 -0.27762973 -0.31198934
-0.47082046 -0.27764973 -0.31137928
-0.4675976 -0.27824298 -0.31231171
-0.5203622 -0.27319142 -0.31206477
-0.51778036 -0.27236906 -0.31360981
-0.5121929 -0.27189341 -0.31117174
-0.50926888 -0.27443594 -0.31387803
-0.49086595 -0.27260056 -0.31076685
-0.4867816 -0.2723338 -0.31220761
-0.48301315 -0.27088988 -0.31096837
-0.47763827 -0.27360073 -0.31270143
-0.47057414 -0.27184427 -0.31109455
-0.46926546 -0.27381772 -0.31197354
-0.45587921 -0.27261272 -0.31212136
-0.44119483 -0.27016807 -0.31030071
-0.43721193 -0.2727809 -0.31006971
-0.4304837 -0.27031189 -0.31216761
-0.53616214 -0.26603866 -0.31231964
-0.52863216 -0.26651365 -0.31264728
-0.52112031 -0.26697958 -0.31299332
-0.516343 -0.26804748 -0.31132722
-0.5122335 -0.26780081 -0.31273952
-0.50923562 -0.26896629 -0.31048635
-0.49667752 -0.26997995 -0.31049117
-0.43920517 -0.26598781 -0.31021294
-0.42785937 -0.26713145 -0.31253079
-0.63617516 -0.26045376 -0.31231254
-0.6271174 -0.26329157 -0.31319109
-0.6205616 -0.26391175 -0.31292081
-0.61642551 -0.26464853 -0.31191209
-0.58181334 -0.26075226 -0.31030563
-0.57983303 -0.26197737 -0.31361386
-0.51424545 -0.26364052 -0.31123471
-0.49357343 -0.26345819 -0.31035426
-0.43721551 -0.26180756 -0.31012517
-0.42523974 -0.26396087 -0.3128942
-0.42192909 -0.26326776 -0.31175438
-0.41703832 -0.26230684 -0.31346142
-0.41323563 -0.26134259 -0.31133723
-0.40245768 -0.26038757 -0.31085333
-0.63688093 -0.25697869 -0.31149489
-0.42989421 -0.25650132 -0.31414676
-0.41870749 -0.25957021 -0.31452182
-0.41016877 -0.25875622 -0.31314006
-0.40147468 -0.25804666 -0.31339478
-0.3973906 -0.25693956 -0.31176686
-0.39224178 -0.25511819 -0.31042361
-0.44416261 -0.25435722 -0.31057385
-0.42693084 -0.25027531 -0.31401604
-0.39521188 -0.25364107 -0.3134473
-0.39253765 -0.25234318 -0.31198055
-0.61381841 -0.24974427 -0.31262338
-0.51526928 -0.24507153 -0.31092507
-0.50084722 -0.24538559 -0.31370267
-0.49763501 -0.24698311 -0.31043252
-0.49227214 -0.24590917 -0.31449655
-0.48908174 -0.24749593 -0.31124848
-0.48170614 -0.2480465 -0.31167617
-0.47187328 -0.24511442 -0.31001222
-0.431036 -0.24555793 -0.31378412
-0.42822152 -0.2483016 -0.31312221
-0.42381716 -0.24607629 -0.31435421
-0.39280108 -0.24857597 -0.31334096
-0.38894621 -0.24722643 -0.31233296
-0.60222411 -0.24421933 -0.31046644
-0.58038449 -0.24209929 -0.31475556
-0.57699513 -0.24378487 -0.31130517
-0.56820917 -0.24437684 -0.31189793
-0.56433868 -0.2406199 -0.31008732
-0.51548314 -0.24071324 -0.31002945
-0.49703789 -0.24394977 -0.31242648
-0.49335015 -0.24037021 -0.31070137
-0.48607165 -0.24268368 -0.31257927
-0.47802147 -0.2434459 -0.31270501
-0.47242701 -0.24217492 -0.31157449
-0.4677259 -0.24158108 -0.3123993
-0.46468049 -0.24357004 -0.31002352
-0.45684442 -0.24243487 -0.31115127
-0.44223905 -0.24229804 -0.31349429
-0.43674171 -0.24126597 -0.31382132
-0.42776608 -0.24338272 -0.31458724
-0.40990192 -0.24106967 -0.31413344
-0.39039028 -0.24351086 -0.31323466
-0.38651368 -0.24256308 -0.31307313
-0.38361788 -0.24007037 -0.31295279
-0.57885528 -0.23838833 -0.31216773
-0.57479441 -0.23916098 -0.3112081
-0.5660224 -0.23978251 -0.31180146
-0.56425261 -0.23658085 -0.3142367
-0.55534863 -0.23852731 -0.31151658
-0.54731357 -0.23692241 -0.31152701
-0.53847528 -0.23574442 -0.31070942
-0.48306859 -0.23788626 -0.31391039
-0.47164547 -0.23578168 -0.31061375
-0.46674585 -0.23873025 -0.31220171
-0.45297545 -0.23790759 -0.31324017
-0.44684863 -0.23852772 -0.31332672
-0.44305754 -0.23528577 -0.31409627
-0.43745556 -0.23696166 -0.31422353
-0.43193501 -0.23759508 -0.3141326
-0.42567742 -0.23592813 -0.31158373
-0.4144651 -0.2373895 -0.31389347
-0.38228473 -0.2382354 -0.31253198
-0.37946177 -0.23595835 -0.31374496
-0.59888721 -0.23072147 -0.31410438
-0.58826268 -0.23456722 -0.31330204
-0.51719737 -0.23161227 -0.31486636
-0.51393819 -0.23323315 -0.31154841
-0.48721147 -0.2328819 -0.31381726
-0.47334814 -0.23286672 -0.31176889
-0.46947169 -0.23359032 -0.31098098
-0.45301592 -0.2339461 -0.31475872
-0.44803125 -0.23461866 -0.31442204
-0.43481863 -0.23377836 -0.31457746
-0.42824104 -0.23336221 -0.31467748
-0.42418694 -0.23279665 -0.31151798
-0.41238296 -0.23223568 -0.31364259
-0.38107526 -0.2322294 -0.31174701
-0.37927902 -0.23223926 -0.31227991
-0.58552372 -0.22758269 -0.31296557
-0.57503986 -0.22595933 -0.31365344
-0.56627774 -0.22666743 -0.31422269
-0.53631783 -0.22503439 -0.31428325
-0.51182187 -0.22878671 -0.31145504
-0.50576687 -0.22510695 -0.31050596
-0.50150359 -0.22637588 -0.31460619
-0.49481165 -0.22790669 -0.31252787
-0.42346159 -0.22928466 -0.31223115
-0.41606522 -0.22744666 -0.31353682
-0.41169834 -0.22530019 -0.31477049
-0.38144159 -0.22718103 -0.31245512
-0.57917452 -0.22285342 -0.31419551
-0.57040334 -0.22358429 -0.31474847
-0.56518209 -0.22436535 -0.31417435
-0.54170173 -0.22175419 -0.31186879
-0.53708267 -0.22365928 -0.31137404
-0.53284997 -0.22177088 -0.31126893
-0.51760447 -0.22279614 -0.31309527
-0.50704861 -0.22387344 -0.31338775
-0.50471103 -0.22288868 -0.31045938
-0.47480965 -0.22053431 -0.31354612
-0.46864462 -0.22125266 -0.31356409
-0.43703228 -0.2226267 -0.31383049
-0.41624275 -0.22151965 -0.31455261
-0.40972984 -0.22116432 -0.31468368
-0.38255769 -0.22242117 -0.31327242
-0.58318037 -0.21551619 -0.31283247
-0.56665635 -0.2152091 -0.31206462
-0.56145108 -0.2160188 -0.31149295
-0.55392098 -0.21679866 -0.31170619
-0.53289175 -0.21755879 -0.31288254
-0.52920341 -0.2168141 -0.31280148
-0.50092107 -0.21732965 -0.31074476
-0.49292898 -0.21915302 -0.31153622
-0.48745352 -0.21662989 -0.31063557
-0.48144001 -0.21805158 -0.31186938
-0.47457933 -0.21702649 -0.31060883
-0.4655205 -0.21880107 -0.31188494
-0.46056366 -0.21552761 -0.31305033
-0.45432144 -0.21838893 -0.31355444
-0.4473916 -0.21671107 -0.31112745
-0.44097716 -0.21979803 -0.3141109
-0.43678188 -0.21737757 -0.31288275
-0.43360144 -0.21707994 -0.31170288
-0.42843339 -0.21753776 -0.31219646
-0.42290992 -0.21980946 -0.31397048
-0.41876164 -0.21742202 -0.31276906
-0.39537442 -0.21649946 -0.31127307
-0.39408365 -0.21743326 -0.31146038
-0.38718218 -0.21627262 -0.31333193
-0.38343105 -0.21833867 -0.31146827
-0.5765655 -0.21443215 -0.31112161
-0.55925488 -0.2114048 -0.31139609
-0.50728834 -0.21020111 -0.31194419
-0.49871075 -0.21207857 -0.31290528
-0.4907943 -0.21347599 -0.31279126
-0.48869008 -0.21144664 -0.31157643
-0.48193312 -0.21221468 -0.31176025
-0.4774754 -0.21299177 -0.31114569
-0.46846688 -0.21372408 -0.31217754
-0.46266049 -0.21192387 -0.3127611
-0.44598246 -0.21138424 -0.31059867
-0.44124806 -0.21174702 -0.31126291
-0.43871808 -0.21318023 -0.31132883
-0.43215305 -0.21285844 -0.31140393
-0.4289183 -0.21361575 -0.3104603
-0.4234224 -0.21147744 -0.31210548
-0.41727114 -0.21429053 -0.31270328
-0.41067195 -0.21216276 -0.3147805
-0.40028986 -0.21161145 -0.31148815
-0.39680183 -0.2112691 -0.31168026
-0.39209357 -0.21323776 -0.31229079
-0.38825974 -0.21272779 -0.31217289
-0.59942257 -0.20962057 -0.31027687
-0.58604085 -0.20573995 -0.31143126
-0.5761168 -0.20658848 -0.31233495
-0.50852764 -0.20797864 -0.31110078
-0.50115013 -0.20877405 -0.31143516
-0.49326468 -0.208455 -0.31176466
-0.48711264 -0.20514475 -0.3133035
-0.4842608 -0.20813866 -0.31251678
-0.47636378 -0.20594141 -0.31489429
-0.47237921 -0.20890264 -0.3145313
-0.46838838 -0.20791611 -0.31225893
-0.45612723 -0.20555359 -0.31039241
-0.42739365 -0.20757267 -0.3121343
-0.41905761 -0.20936355 -0.31332871
-0.41357923 -0.20726216 -0.31497464
-0.40283522 -0.20686406 -0.31094247
-0.39700523 -0.20782296 -0.31125894
-0.38750559 -0.20772333 -0.31233874
-0.58840519 -0.20252731 -0.31257141
-0.57386506 -0.20308787 -0.31245133
-0.50648546 -0.20127486 -0.31056163
-0.50026846 -0.20210445 -0.31049472
-0.49903619 -0.20433252 -0.31134191
-0.48725712 -0.20184274 -0.31263107
-0.47874975 -0.20375696 -0.31363663
-0.47294959 -0.20191146 -0.31221196
-0.46029967 -0.20220551 -0.31173337
-0.45868269 -0.20306408 -0.31209716
-0.45402271 -0.20231974 -0.3105312
-0.44686025 -0.20204578 -0.31076837
-0.44405711 -0.20497285 -0.31004712
-0.43768111 -0.20239228 -0.3111262
-0.4337213 -0.20150113 -0.31087422
-0.42308432 -0.20441084 -0.31311962
-0.40698743 -0.20293307 -0.31100941
-0.40255576 -0.20371246 -0.31094909
-0.39228806 -0.20298123 -0.31267923
-0.59432071 -0.19809704 -0.31238374
-0.58502293 -0.19867167 -0.31052703
-0.57161582 -0.1995922 -0.31256783
-0.50550151 -0.19679429 -0.31006929
-0.49825576 -0.19887286 -0.31138575
-0.4948082 -0.19544952 -0.31115544
-0.48739469 -0.19852595 -0.31195831
-0.47638845 -0.19577649 -0.31060359
-0.47076881 -0.19770652 -0.31062099
-0.46148607 -0.19746745 -0.31156325
-0.45698577 -0.19610895 -0.31058586
-0.45202124 -0.19692689 -0.3102113
-0.43763489 -0.1985783 -0.31116372
-0.42652828 -0.19653952 -0.31487337
-0.40296602 -0.19779603 -0.31042045
-0.39720136 -0.19761501 -0.31241494
-0.39476389 -0.19993122 -0.31155002
-0.59208953 -0.19217226 -0.31207228
-0.58618343 -0.19460878 -0.31436861
-0.58049202 -0.19161716 -0.31075686
-0.49603105 -0.19320172 -0.31030783
-0.47257328 -0.19313943 -0.31067517
-0.46826077 -0.19004717 -0.31005254
-0.46210298 -0.19200626 -0.31028837
-0.45708251 -0.19393186 -0.31012881
-0.45380014 -0.19179636 -0.31090671
-0.44547325 -0.1926721 -0.31177488
-0.44080874 -0.1920362 -0.31219476
-0.41935587 -0.19125348 -0.31017345
-0.40599489 -0.19096331 -0.31342304
-0.40312961 -0.19310772 -0.31227294
-0.39894477 -0.1946267 -0.31227785
-0.58394265 -0.18990104 -0.31426978
-0.5747354 -0.18814933 -0.3120068
-0.47212517 -0.18921377 -0.31087163
-0.46769285 -0.18708467 -0.31204426
-0.45834315 -0.18768427 -0.31081188
-0.45113251 -0.18857193 -0.31125039
-0.425969 -0.18589962 -0.31298232
-0.42107439 -0.18673767 -0.31265828
-0.41730243 -0.1875495 -0.31192434
-0.41090688 -0.18910891 -0.31233764
-0.56560707 -0.18006212 -0.31353769
-0.47503662 -0.18396054 -0.31120133
-0.47286105 -0.18178849 -0.31155971
-0.46561396 -0.18271711 -0.31195259
-0.46420473 -0.18423016 -0.31156701
-0.45875883 -0.18290769 -0.31091768
-0.45024037 -0.18020035 -0.31229281
-0.44677854 -0.1824671 -0.31397843
-0.4419378 -0.18115544 -0.31315151
-0.43734348 -0.18238238 -0.31157804
-0.5726496 -0.17514025 -0.31041098
-0.56565523 -0.17769872 -0.31311011
-0.45631802 -0.1792938 -0.31227273
-0.57448304 -0.16710067 -0.31088847
-0.57770735 -0.16297141 -0.31038025
-0.56333435 -0.16072893 -0.31212667
-0.47945571 -0.16137756 -0.31251264
-0.4719637 -0.16280532 -0.31183797
-0.45179176 -0.16325422 -0.31316721
-0.43265307 -0.16402854 -0.31320336
-0.40725398 -0.16077679 -0.31495658
-0.56024075 -0.15646371 -0.31115267
-0.54594684 -0.15550242 -0.31316137
-0.52720594 -0.15630002 -0.31216604
-0.49512565 -0.15920231 -0.31147042
-0.4293648 -0.1551505 -0.31093147
-0.39843452 -0.15897794 -0.31100336
-0.39044261 -0.15792382 -0.31152001
-0.38142338 -0.15623236 -0.31232354
-0.45605761 -0.15031278 -0.31009722
-0.45291173 -0.15359086 -0.31042767
-0.44942731 -0.15258944 -0.31038922
-0.43332905 -0.15120241 -0.3100515
-0.42979032 -0.15204579 -0.31108513
-0.38854873 -0.1515974 -0.31096286
-0.38116592 -0.1544923 -0.31321293
-0.45255744 -0.14930686 -0.31005859
-0.44988441 -0.14947301 -0.31056178
-0.43786037 -0.14837968 -0.31378859
-0.43272528 -0.14719631 -0.31255877
-0.42666107 -0.1460721 -0.31216693
-0.42198125 -0.14516784 -0.31035364
-0.4165822 -0.14831118 -0.31498793
-0.41216528 -0.14755528 -0.31071889
-0.40987885 -0.14539331 -0.31032914
-0.39615333 -0.14547217 -0.31146166
-0.39017367 -0.14867854 -0.31205475
-0.38390279 -0.14604852 -0.31372613
-0.62464094 -0.14123745 -0.31086037
-0.61649919 -0.14418808 -0.31381196
-0.46169502 -0.14121012 -0.31263164
-0.4570491 -0.14236583 -0.31153926
-0.45464623 -0.14292938 -0.31221548
-0.44709539 -0.14270747 -0.31221449
-0.44234633 -0.14238554 -0.31214175
-0.4379403 -0.14280452 -0.31263843
-0.43210226 -0.1432139 -0.31173429
-0.42768031 -0.1419553 -0.31270039
-0.42343533 -0.14111416 -0.31185904
-0.41693956 -0.14209607 -0.31038088
-0.41319469 -0.14173171 -0.31175482
-0.39500898 -0.14024261 -0.31368467
-0.39262575 -0.14203289 -0.31226656
-0.38811341 -0.14178309 -0.31228396
-0.65640497 -0.13622928 -0.31072879
-0.63931125 -0.13754436 -0.31090936
-0.6217792 -0.13557325 -0.31331083
-0.61797982 -0.13870525 -0.3137145
-0.60874152 -0.13682489 -0.3132787
-0.59442735 -0.1370631 -0.31436971
-0.51286197 -0.13594751 -0.31328017
-0.45753145 -0.13850126 -0.31386903
-0.45428187 -0.13766253 -0.31135458
-0.43670976 -0.13916624 -0.3107737
-0.43003458 -0.13585621 -0.31194395
-0.42053688 -0.13778269 -0.31041291
-0.41780359 -0.13749328 -0.31318772
-0.4133735 -0.13702857 -0.31258723
-0.40703142 -0.13748384 -0.31162098
-0.4031423 -0.13713798 -0.31134409
-0.39967322 -0.13927791 -0.31442884
-0.39109528 -0.13675767 -0.31028011
-0.38871887 -0.13725479 -0.31193459
-0.37239075 -0.13877675 -0.31030291
-0.67060935 -0.13117222 -0.31090146
-0.66779327 -0.13313434 -0.31459188
-0.66032016 -0.13349822 -0.31297806
-0.62873936 -0.13261424 -0.31073326
-0.6240859 -0.13037252 -0.31176433
-0.61649573 -0.13289912 -0.31194955
-0.60776281 -0.13297324 -0.31210378
-0.59213734 -0.1322519 -0.31426871
-0.53771764 -0.13255835 -0.31424105
-0.53150898 -0.13131873 -0.31360316
-0.52869594 -0.13104647 -0.31204256
-0.52264571 -0.13353503 -0.31284603
-0.51912975 -0.13006034 -0.31257814
-0.50841343 -0.13271618 -0.31417578
-0.50114131 -0.13276348 -0.31420144
-0.46547133 -0.13475484 -0.31011268
-0.46190816 -0.1337308 -0.31007338
-0.42651868 -0.13484579 -0.31190515
-0.41737211 -0.13360876 -0.31056035
-0.41474783 -0.13379306 -0.31106034
-0.39204425 -0.1344976 -0.31187063
-0.38626939 -0.13250476 -0.31487024
-0.37429905 -0.1310486 -0.31222901
-0.36490637 -0.13092887 -0.31123045
-0.66819978 -0.12610959 -0.31079519
-0.64905316 -0.12598076 -0.31251696
-0.63699865 -0.12796327 -0.3125774
-0.63053513 -0.12917149 -0.31216347
-0.60544705 -0.12810783 -0.31200165
-0.60376346 -0.12745868 -0.31490552
-0.57170826 -0.12564838 -0.31329012
-0.55596972 -0.1261815 -0.31218374
-0.54628181 -0.12729271 -0.31138062
-0.5360806 -0.12739301 -0.31143194
-0.53497195 -0.12506384 -0.31138307
-0.52226222 -0.1270901 -0.31223574
-0.51747465 -0.12851673 -0.31042674
-0.49902439 -0.12587439 -0.31366953
-0.3929964 -0.12785967 -0.31286493
-0.38803893 -0.12754935 -0.31358886
-0.37160021 -0.12775752 -0.3112182
-0.36507428 -0.12660562 -0.31028351
-0.36499149 -0.12876971 -0.31075704
-0.65413857 -0.12445472 -0.31461099
-0.58274007 -0.12124473 -0.31283548
-0.56567883 -0.12473583 -0.3113251
-0.55198288 -0.12476695 -0.31075191
-0.54973984 -0.1200543 -0.31065297
-0.54234052 -0.12378512 -0.31122249
-0.53896391 -0.12162037 -0.31193286
-0.5304755 -0.12299712 -0.31247899
-0.52654219 -0.12161075 -0.31108117
-0.52352053 -0.12344836 -0.31239131
-0.46654904 -0.12323749 -0.31385732
-0.43805122 -0.12454543 -0.31462747
-0.39786249 -0.12211539 -0.31080937
-0.39454806 -0.12461668 -0.31252965
-0.38830197 -0.12435633 -0.3137778
-0.59621382 -0.11621617 -0.31284118
-0.59099793 -0.11736949 -0.3121317
-0.58870208 -0.11504376 -0.31244785
-0.5611496 -0.11769883 -0.31154975
-0.54748654 -0.11778972 -0.31098151
-0.53559196 -0.11946549 -0.31264347
-0.52826345 -0.11835437 -0.31237969
-0.52283347 -0.11743256 -0.31317249
-0.51424813 -0.11542428 -0.31400448
-0.50583673 -0.11683589 -0.31460142
-0.50250024 -0.11662348 -0.3132599
-0.49693489 -0.11660175 -0.31270051
-0.39847696 -0.11698917 -0.31188834
-0.39445686 -0.11767887 -0.31234723
-0.59735298 -0.11360459 -0.31206015
-0.58716911 -0.11182313 -0.31238022
-0.58323288 -0.11209752 -0.31238782
-0.578309 -0.11360575 -0.31043461
-0.57147205 -0.1104387 -0.31202695
-0.56630993 -0.11160184 -0.31135869
-0.55749464 -0.11024529 -0.31265751
-0.49697822 -0.11235996 -0.31432649
-0.49308246 -0.11339034 -0.31340748
-0.39645094 -0.11273252 -0.31179902
-0.39322001 -0.11305714 -0.3130511
-0.36808604 -0.11095278 -0.310534
-0.61354876 -0.10823402 -0.31129959
-0.58239597 -0.10679007 -0.31300437
-0.57892418 -0.10907272 -0.31196859
-0.57436395 -0.10697059 -0.31302485
-0.56124008 -0.10884757 -0.31494266
-0.54784352 -0.10934106 -0.31309164
-0.52386808 -0.10698851 -0.31343576
-0.51711142 -0.10967989 -0.3144781
-0.51208377 -0.10842159 -0.31347585
-0.50706816 -0.10716948 -0.31248105
-0.50316173 -0.10753966 -0.31383109
-0.49535406 -0.10894749 -0.31425485
-0.49093616 -0.10833113 -0.31081188
-0.48835585 -0.10778318 -0.31157851
-0.47822535 -0.10784619 -0.31260502
-0.39386559 -0.10681289 -0.31389809
-0.36553252 -0.10793526 -0.31089503
-0.36347872 -0.10596776 -0.3112781
-0.61533093 -0.10477671 -0.31272382
-0.61152315 -0.10163692 -0.3120878
-0.58237827 -0.10175745 -0.3121689
-0.57208526 -0.10467604 -0.31334344
-0.52896267 -0.10356618 -0.31444353
-0.5188278 -0.10294722 -0.31030774
-0.50991237 -0.10140404 -0.31294683
-0.49598384 -0.10239686 -0.31046626
-0.49182582 -0.10248049 -0.31306797
-0.48434114 -0.10422161 -0.31228188
-0.47994447 -0.10229419 -0.31340858
-0.44453973 -0.1035223 -0.31464094
-0.39503604 -0.10333307 -0.31279203
-0.39270315 -0.10270516 -0.31316996
-0.36411086 -0.10260093 -0.31035861
-0.61257911 -0.097317755 -0.3123289
-0.6037724 -0.095591098 -0.31467593
-0.5903945 -0.096482411 -0.31133774
-0.56526327 -0.097821891 -0.31429985
-0.56068099 -0.097719826 -0.31323451
-0.54821086 -0.095928103 -0.31436402
-0.54167604 -0.096380882 -0.31282049
-0.53826231 -0.098642267 -0.31184101
-0.52166855 -0.097113371 -0.31079629
-0.51328564 -0.096214086 -0.31092972
-0.50215167 -0.097375736 -0.31477046
-0.49770033 -0.09675473 -0.31130135
-0.48937929 -0.098286003 -0.31192881
-0.48441827 -0.097073734 -0.31096455
-0.47877133 -0.095950305 -0.31416714
-0.39303756 -0.097946383 -0.31247231
-0.37417191 -0.096932381 -0.31002203
-0.62273312 -0.090428039 -0.31072259
-0.61818242 -0.093472451 -0.31256464
-0.60774165 -0.09134838 -0.31279945
-0.58872378 -0.090846315 -0.31341448
-0.57235575 -0.091737442 -0.31232715
-0.56865668 -0.09497951 -0.31277311
-0.55559123 -0.094491109 -0.31427261
-0.55220354 -0.09235011 -0.31496495
-0.54330587 -0.092757024 -0.31372949
-0.40009236 -0.090858027 -0.31084454
-0.39526081 -0.094302833 -0.3109495
-0.3925426 -0.094038516 -0.31420231
-0.6115998 -0.08636564 -0.31336376
-0.60673434 -0.08671882 -0.31234351
-0.57605553 -0.088473588 -0.31189007
-0.5720247 -0.089591011 -0.31082612
-0.56636131 -0.087663993 -0.31225276
-0.55671108 -0.089379102 -0.31305942
-0.55495381 -0.08774291 -0.31085783
-0.54759288 -0.089216009 -0.31095183
-0.49786356 -0.085788161 -0.31468803
-0.49003696 -0.087955713 -0.31475705
-0.48630583 -0.086883426 -0.31471592
-0.47293508 -0.086469293 -0.31423932
-0.46779427 -0.087279283 -0.31259397
-0.46287689 -0.086523928 -0.31149578
-0.45291072 -0.088518262 -0.31388181
-0.44921637 -0.087456524 -0.31384107
-0.39528954 -0.088598907 -0.31446496
-0.39349335 -0.086925268 -0.31306458
-0.61799836 -0.080480233 -0.31051376
-0.60775995 -0.084180728 -0.31414765
-0.60274059 -0.083188221 -0.31169906
-0.4964205 -0.082923383 -0.31344271
-0.49184471 -0.084563494 -0.31280246
-0.48809266 -0.083485186 -0.31276107
-0.4802078 -0.082704246 -0.31134665
-0.47645569 -0.081625938 -0.31130522
-0.46853983 -0.080799699 -0.3140263
-0.46489787 -0.081708908 -0.31497332
-0.45817512 -0.084200978 -0.31094474
-0.44763172 -0.083591342 -0.31413591
-0.39539266 -0.084045723 -0.31355038
-0.39437318 -0.08190383 -0.31350541
-0.38090497 -0.081865013 -0.31011182
-0.37816173 -0.081076622 -0.31008154
-0.36299163 -0.080513149 -0.31093925
-0.62965679 -0.077787772 -0.31174353
-0.61867833 -0.079698443 -0.31272593
-0.49865758 -0.0781762 -0.31076261
-0.49444157 -0.078434616 -0.31145379
-0.48029304 -0.075327158 -0.31386012
-0.46568769 -0.079002082 -0.31350118
-0.45394313 -0.075156093 -0.31105688
-0.39552987 -0.077178881 -0.31217766
-0.39463279 -0.077112742 -0.31326112
-0.37350607 -0.075675294 -0.31066841
-0.36668926 -0.077197805 -0.31119642
-0.3625392 -0.076656699 -0.31110623
-0.52152121 -0.071371913 -0.31066036
-0.51773077 -0.072255075 -0.31159091
-0.51390523 -0.071155667 -0.31154871
-0.49509996 -0.071725845 -0.31010422
-0.49107727 -0.07129097 -0.31146675
-0.48758322 -0.071529746 -0.31100109
-0.4837839 -0.070437849 -0.31095916
-0.47652519 -0.07424432 -0.31381857
-0.45426735 -0.072769046 -0.31396124
-0.39505929 -0.07209684 -0.31369123
-0.39255574 -0.072300084 -0.31288657
-0.38715261 -0.071503282 -0.31410605
-0.37144393 -0.073708922 -0.31104407
-0.36260682 -0.072162911 -0.31171888
-0.66342402 -0.068471953 -0.31083179
-0.52763569 -0.069634199 -0.31111628
-0.49144751 -0.06516397 -0.3136231
-0.47240525 -0.067119002 -0.31498051
-0.39088875 -0.068113893 -0.31442288
-0.38641098 -0.069599852 -0.31284928
-0.38252407 -0.067288578 -0.31149828
-0.37519133 -0.068066061 -0.31086132
-0.37153035 -0.069157958 -0.31011456
-0.53021234 -0.061374903 -0.31098258
-0.52650225 -0.064319581 -0.31077585
-0.52491337 -0.062295318 -0.31421119
-0.51879978 -0.0640499 -0.31374049
-0.51495326 -0.062944472 -0.31369805
-0.49082756 -0.062485456 -0.3144834
-0.47061938 -0.061154842 -0.31436199
-0.46681482 -0.060061455 -0.31432003
-0.45916271 -0.063313246 -0.31483442
-0.40209866 -0.061243474 -0.3114315
-0.39414728 -0.063011512 -0.31227756
-0.38939202 -0.064283252 -0.31190693
-0.53771698 -0.057473987 -0.31237674
-0.53382313 -0.05635494 -0.31233376
-0.52618498 -0.058144212 -0.31415904
-0.51734209 -0.057403862 -0.31176779
-0.49084395 -0.055023193 -0.31295139
-0.47867483 -0.056551695 -0.31106043
-0.47133839 -0.058396518 -0.31291687
-0.46742892 -0.056284666 -0.3123894
-0.46283448 -0.056940913 -0.31330743
-0.41647816 -0.057371706 -0.31265914
-0.53768891 -0.053562205 -0.31404203
-0.53348303 -0.053988516 -0.31230617
-0.49777061 -0.052547753 -0.31086498
-0.49248046 -0.051523626 -0.31104693
-0.48699218 -0.053916216 -0.31290889
-0.48418093 -0.054100752 -0.31335855
-0.47686592 -0.053014219 -0.31236997
-0.4717226 -0.051547676 -0.31161898
-0.46926826 -0.050347149 -0.31135064
-0.46217525 -0.054251075 -0.31416732
-0.54506743 -0.047494888 -0.31095588
-0.54112649 -0.04636234 -0.31091243
-0.52076757 -0.045515299 -0.31305388
-0.51157051 -0.048145264 -0.31439397
-0.50791699 -0.047168422 -0.31333083
-0.5039686 -0.04523313 -0.31290871
-0.4984293 -0.047636032 -0.3147479
-0.48667127 -0.0498541 -0.31098282
-0.48406935 -0.046578944 -0.31184548
-0.47603375 -0.045724511 -0.31455952
-0.4640891 -0.049319088 -0.3136175
-0.5529846 -0.040055573 -0.31288785
-0.54703969 -0.043214798 -0.31189066
-0.52024531 -0.04481858 -0.31490439
-0.51529264 -0.042392373 -0.31437844
-0.51137793 -0.041267276 -0.31433526
-0.50882506 -0.042856842 -0.31223053
-0.50185919 -0.042629421 -0.31193531
-0.49794972 -0.041505873 -0.31189218
-0.48602736 -0.041620195 -0.31133139
-0.48145807 -0.043296933 -0.31271172
-0.47757477 -0.042180896 -0.31266889
-0.47122133 -0.042619467 -0.3126263
-0.46769494 -0.04286769 -0.31214356
-0.46042037 -0.04475522 -0.31397843
-0.4558779 -0.040928602 -0.31481415
-0.55668169 -0.035076022 -0.31012282
-0.54786682 -0.035563707 -0.31142849
-0.52459145 -0.03693074 -0.3149128
-0.51655865 -0.036461622 -0.31249619
-0.51343483 -0.036289215 -0.31386492
-0.50976771 -0.039351702 -0.31151289
-0.49732804 -0.03789176 -0.31290445
-0.49429744 -0.036860019 -0.31438249
-0.39340013 -0.036523759 -0.31021926
-0.56098664 -0.032712281 -0.31065339
-0.55722201 -0.031780064 -0.31389746
-0.55231696 -0.033395231 -0.31273538
-0.54774791 -0.033515573 -0.31049192
-0.52050006 -0.033740878 -0.31393242
-0.51671398 -0.031927407 -0.31248736
-0.5096302 -0.031739354 -0.31007379
-0.50197375 -0.031488031 -0.31303427
-0.49857509 -0.031013787 -0.3132315
-0.48223525 -0.034897804 -0.31495646
-0.47833097 -0.033775747 -0.31491339
-0.54696667 -0.028549135 -0.31472176
-0.5428313 -0.025334179 -0.313752
-0.52412075 -0.026880264 -0.31351215
-0.51908368 -0.028298795 -0.3115786
-0.56968868 -0.020142555 -0.31464595
-0.55634642 -0.020961702 -0.31444243
-0.55194283 -0.022017697 -0.31186283
-0.5388273 -0.024183452 -0.31370783
-0.56861562 -0.018814683 -0.31417763
-0.55755079 -0.016654223 -0.31451204
-0.5535115 -0.019421548 -0.31300792
-0.5626483 -0.011409998 -0.31372645
-0.55816293 -0.011732727 -0.31223631
-0.65161771 0.068277121 -0.31031209
-0.64843249 0.068133533 -0.31069815
-0.65155685 0.07075417 -0.31387755
-0.65773535 0.079139628 -0.31299803
-0.65076137 0.077536345 -0.31357187
-0.66178316 0.084140718 -0.31216985
-0.65681809 0.083783448 -0.31052029
-0.65377158 0.08003974 -0.31456426
-0.65839028 0.090579093 -0.31154475
-0.65250528 0.092868567 -0.31201449
-0.66035187 0.095620275 -0.31247306
-0.65810674 0.09757936 -0.31271079
-0.65329325 0.098012537 -0.31340408
-0.64351171 0.099388599 -0.31269732
-0.65227824 0.10169044 -0.31094867
-0.64607155 0.10222974 -0.31250328
-0.64397228 0.10105288 -0.31430832
-0.63920271 0.10152525 -0.31345272
-0.66279358 0.10626737 -0.31124607
-0.65878862 0.10719585 -0.31282669
-0.64911032 0.10675061 -0.31393901
-0.66580921 0.11055601 -0.31087235
-0.66120183 0.11188018 -0.31082153
-0.6556536 0.1123991 -0.31116661
-0.65289116 0.1139369 -0.31316885
-0.6561594 0.1180563 -0.31362328
-0.65246332 0.11691874 -0.3109324
-0.64853573 0.11744541 -0.31342831
-0.64339417 0.11763195 -0.31347135
-0.6573469 0.12240791 -0.31304398
-0.64554834 0.12218547 -0.31310359
-0.64782578 0.12826277 -0.31139529
-0.6420477 0.12788653 -0.31247437
-0.64941514 0.13301736 -0.31219563
-0.6424669 0.13431376 -0.31354445
-0.63480031 0.13175261 -0.31056905
-0.6524114 0.13676876 -0.31247619
-0.64446265 0.13622499 -0.3103165
-0.63916755 0.13688785 -0.3129096
-0.63341898 0.13583016 -0.31384361
-0.65707779 0.14032757 -0.3146278
-0.65211511 0.14152786 -0.31231952
-0.64813519 0.14345875 -0.31338948
-0.64160991 0.14384544 -0.3136282
-0.63917869 0.14392966 -0.31031662
-0.64525592 0.14512801 -0.31164822
-0.64376724 0.14865932 -0.31167024
-0.63999546 0.14881176 -0.31079596
-0.64837152 0.15340519 -0.31304258
-0.64351201 0.15282883 -0.31213734
-0.63754404 0.15355748 -0.31164569
-0.63173056 0.15452769 -0.31300703
-0.64709193 0.15839583 -0.31214556
-0.64167511 0.15790054 -0.31321502
-0.63763458 0.15685357 -0.31279242
-0.63322526 0.15936835 -0.31385893
-0.64326018 0.1643908 -0.31191829
-0.6299386 0.16057408 -0.31451198
-0.64313674 0.16850072 -0.31282339
-0.63163108 0.16653912 -0.31300262
-0.62919939 0.16703486 -0.31461796
-0.63158792 0.17102182 -0.31061497
-0.64222872 0.17913234 -0.31387654
-0.63750291 0.17844182 -0.31336102
-0.64382863 0.18497705 -0.31405845
-0.63077927 0.18490553 -0.31049848
-0.65026051 0.18944973 -0.31430852
-0.64324307 0.18831204 -0.31175345
-0.63571572 0.18620813 -0.31435305
-0.63185412 0.18636349 -0.31345737
-0.62576628 0.18675244 -0.31149015
-0.64541179 0.19084322 -0.31425503
-0.64162248 0.19138499 -0.31281224
-0.63808048 0.19158018 -0.31226569
-0.62779158 0.19068646 -0.31349742
-0.64524364 0.20301962 -0.31004852
-0.64140707 0.20054108 -0.3136439
-0.63896698 0.20124239 -0.31361699
-0.6425581 0.20794272 -0.31099403
-0.63196242 0.21319717 -0.31011632
-0.62830573 0.21398497 -0.31257635
-0.64661509 0.21647006 -0.31012866
-0.6418649 0.21715236 -0.31151757
-0.63331139 0.21586657 -0.31149602
-0.64514333 0.22081447 -0.31361756
-0.64121652 0.22262579 -0.31213298
-0.63975871 0.22372758 -0.31067565
-0.63349473 0.22220144 -0.31173646
-0.6402629 0.2255497 -0.31243935
-0.63947296 0.22799838 -0.311681
-0.63404965 0.22733527 -0.31237078
-0.64252222 0.23243201 -0.31235766
-0.63679379 0.23267652 -0.31195328
-0.62951291 0.23086077 -0.31157112
-0.63688111 0.23805188 -0.3117663
-0.64167374 0.24680144 -0.31129682
-0.63132143 0.24877864 -0.31029055
-0.62467259 0.24511427 -0.31207263
-0.64191377 0.25108385 -0.31108567
-0.63938177 0.2518115 -0.31105772
-0.63159317 0.25352156 -0.31277907
-0.62577146 0.25170568 -0.31141996
-0.62477326 0.25465673 -0.31379026
-0.63597387 0.25502515 -0.31028163
-0.6319868 0.25682425 -0.31492475
-0.63383502 0.2629067 -0.31401795
-0.62879407 0.26245457 -0.31089556
-0.63648105 0.2698915 -0.31276372
-0.63176644 0.26697886 -0.3116326
-0.6298269 0.26618719 -0.31450859
-0.63381422 0.27402794 -0.31164324
-0.64275652 0.277991 -0.31211039
-0.63833272 0.27915469 -0.31333309
-0.63191915 0.27712116 -0.31162086
-0.62611592 0.27624035 -0.31155831
-0.64263904 0.28140098 -0.31102356
-0.63812608 0.2813614 -0.31388241
-0.63210022 0.28122771 -0.31317434
-0.62729686 0.28243399 -0.31193984
-0.63606453 0.28984624 -0.31133997
-0.6292094 0.28832832 -0.31361756
-0.63508368 0.29238307 -0.31060928
-0.63064057 0.29355857 -0.31183729
-0.63613892 0.29619646 -0.31430057
-0.63162851 0.29680666 -0.31363747
-0.62767428 0.2970342 -0.31346539
-0.64332348 0.30185866 -0.31444767
-0.6247279 0.30173916 -0.31346214
-0.62726027 0.30713817 -0.31281152
-0.6353389 0.31644428 -0.31303599
-0.63252211 0.31737515 -0.31128967
-0.62848318 0.31614292 -0.31366542
-0.6377368 0.32239404 -0.3135255
-0.63136929 0.323264 -0.31122959
-0.63640934 0.32724011 -0.31339824
-0.63029045 0.32584566 -0.31051248
-0.6292569 0.32596886 -0.31308138
-0.62224126 0.32741621 -0.31317925
-0.63769901 0.33256292 -0.31166282
-0.62918323 0.33492756 -0.31286266
-0.62253499 0.33359015 -0.3112537
-0.62885392 0.33844209 -0.31181261
-0.6309551 0.34223872 -0.31303364
-0.62609899 0.34371394 -0.31168354
-0.62060392 0.34178752 -0.31396037
-0.63115156 0.34773529 -0.31389606
-0.62577796 0.34927964 -0.31383675
-0.6322521 0.3503547 -0.31174511
-0.62377703 0.35221934 -0.3118251
-0.62423825 0.35544258 -0.31209424
-0.45682627 -0.38784373 -0.30693948
-0.44705379 -0.38571274 -0.30705577
-0.46694255 -0.38048694 -0.30931196
-0.46392918 -0.38198563 -0.30624413
-0.45156345 -0.38173062 -0.30891484
-0.44596258 -0.38237503 -0.30830172
-0.46120754 -0.37803307 -0.30726707
-0.44906875 -0.37792635 -0.30758938
-0.44297171 -0.37942278 -0.30737224
-0.46563101 -0.37080169 -0.30779094
-0.46130669 -0.37486604 -0.30808541
-0.45555806 -0.37200904 -0.30978984
-0.45384067 -0.37459287 -0.30874667
-0.44890618 -0.37199911 -0.30561522
-0.44252867 -0.37463796 -0.3087973
-0.46594793 -0.36985296 -0.30976361
-0.46361586 -0.36807042 -0.30916911
-0.45458555 -0.36996579 -0.30974695
-0.44696349 -0.36791751 -0.30552953
-0.44262186 -0.36719814 -0.30715159
-0.43592554 -0.36619109 -0.30511862
-0.46300566 -0.36367136 -0.30963385
-0.45209444 -0.36012161 -0.30865806
-0.44704115 -0.36030707 -0.30844676
-0.44404936 -0.36179498 -0.30540103
-0.43846926 -0.36152688 -0.30762872
-0.43397731 -0.36395511 -0.3077203
-0.4701041 -0.35610637 -0.30754423
-0.46188608 -0.3563444 -0.30738842
-0.45740628 -0.35664326 -0.30693477
-0.45398083 -0.35693905 -0.30645671
-0.44961828 -0.35882008 -0.30708668
-0.44210666 -0.35771337 -0.30531532
-0.43708202 -0.3579028 -0.30512637
-0.43472958 -0.35753316 -0.30601567
-0.46555078 -0.35349789 -0.30879602
-0.46113297 -0.35262376 -0.30747995
-0.4574852 -0.35137731 -0.30694392
-0.43397248 -0.35365602 -0.30548576
-0.46308431 -0.34831572 -0.30868721
-0.45774147 -0.34852326 -0.30777562
-0.45342046 -0.34670821 -0.30700567
-0.45923841 -0.34487393 -0.309486
-0.45240071 -0.34150672 -0.30573854
-0.44771758 -0.34294012 -0.30830002
-0.45077077 -0.33646309 -0.30762711
-0.44857606 -0.33809096 -0.30654532
-0.45030129 -0.333974 -0.30613932
-0.44767129 -0.33243603 -0.30858934
-0.45471746 -0.32774109 -0.30538052
-0.44733196 -0.32924059 -0.30747455
-0.46824074 -0.32163852 -0.30808568
-0.46239445 -0.32089493 -0.30711207
-0.45736647 -0.32272038 -0.30675831
-0.45366928 -0.32424152 -0.30852765
-0.47661155 -0.31918633 -0.307845
-0.47204325 -0.31711596 -0.30685219
-0.46976113 -0.31783304 -0.306716
-0.46470237 -0.31820405 -0.30643049
-0.47047246 -0.3129757 -0.30777457
-0.4625726 -0.31206331 -0.30831468
-0.46240982 -0.30705455 -0.30734965
-0.46748042 -0.29564306 -0.3077226
-0.46363404 -0.29776812 -0.30846465
-0.45978475 -0.29987323 -0.30921188
-0.47032747 -0.29190025 -0.30743241
-0.4699645 -0.29383349 -0.30640584
-0.46775526 -0.28757447 -0.30691475
-0.46694422 -0.28269514 -0.3070541
-0.50808221 -0.27747473 -0.30859378
-0.46697679 -0.27846345 -0.3083289
-0.46420953 -0.27567521 -0.30842623
-0.45610189 -0.2764222 -0.30817151
-0.44625133 -0.27543896 -0.30711582
-0.51299083 -0.27178276 -0.3084929
-0.50751561 -0.27390417 -0.30810747
-0.48143589 -0.27167428 -0.30936271
-0.46810085 -0.27267596 -0.30845517
-0.46371716 -0.27196684 -0.30669978
-0.45155653 -0.27367678 -0.30857888
-0.44352806 -0.27321982 -0.3077133
-0.43240291 -0.27130109 -0.30933219
-0.61710024 -0.26563326 -0.30939686
-0.61297131 -0.26636651 -0.30839548
-0.60166621 -0.26670817 -0.30969426
-0.53887951 -0.26583117 -0.3065359
-0.5301888 -0.26624769 -0.30727375
-0.51533079 -0.26504439 -0.30755043
-0.5117023 -0.26697946 -0.30922168
-0.50697196 -0.26759318 -0.30866733
-0.4980408 -0.26689351 -0.30939794
-0.4924812 -0.26668689 -0.30823568
-0.48817658 -0.26731393 -0.30757913
-0.48396146 -0.26869878 -0.30784091
-0.47549391 -0.26801145 -0.3085013
-0.47269213 -0.26975596 -0.30754769
-0.46385646 -0.26991183 -0.30623224
-0.45667964 -0.26826501 -0.30629534
-0.45265236 -0.26800334 -0.30778173
-0.44095859 -0.26899037 -0.30783856
-0.43042499 -0.26714551 -0.30924496
-0.42715153 -0.26620388 -0.30687565
-0.41441953 -0.26551637 -0.30601993
-0.63683474 -0.26143986 -0.30978423
-0.63360178 -0.26271921 -0.30729288
-0.61072826 -0.26165387 -0.30829653
-0.59862554 -0.26132166 -0.3085078
-0.57851386 -0.260185 -0.3064208
-0.56242472 -0.26345152 -0.30760768
-0.53673971 -0.26133546 -0.30644152
-0.52665985 -0.26215702 -0.30654904
-0.51842105 -0.26197797 -0.30585551
-0.50805175 -0.26230925 -0.30725962
-0.49951732 -0.26166433 -0.30784842
-0.48849261 -0.26405054 -0.30996752
-0.4535813 -0.26292682 -0.30639642
-0.43935603 -0.26396668 -0.30974239
-0.41838822 -0.26449615 -0.30767247
-0.41494912 -0.26270467 -0.30751428
-0.40627509 -0.26385534 -0.30663717
-0.40266562 -0.26185742 -0.30709141
-0.63514352 -0.25997514 -0.30757329
-0.63223213 -0.25632787 -0.3078728
-0.58614397 -0.25962967 -0.30620667
-0.44920397 -0.25958696 -0.30739185
-0.40094036 -0.25956267 -0.30787033
-0.39734775 -0.25820199 -0.30674624
-0.3932046 -0.25692436 -0.30738902
-0.62907583 -0.25197792 -0.30687845
-0.6145227 -0.25489357 -0.30586484
-0.60869312 -0.25001183 -0.30690724
-0.59982634 -0.25058904 -0.30743843
-0.5085566 -0.25263762 -0.30521378
-0.49893737 -0.25092494 -0.30597746
-0.48923802 -0.25136292 -0.30722183
-0.4830246 -0.25194675 -0.30725002
-0.44608772 -0.25135946 -0.30923772
-0.39146155 -0.25313318 -0.3074733
-0.38984257 -0.25127149 -0.30716315
-0.62651861 -0.24764946 -0.30569744
-0.61883235 -0.24713156 -0.30559048
-0.60399902 -0.24751595 -0.30799973
-0.59301394 -0.24756712 -0.30831993
-0.58671916 -0.2468693 -0.30740723
-0.58297515 -0.24809864 -0.30518639
-0.54014444 -0.24734825 -0.30504099
-0.52565527 -0.2476621 -0.30776283
-0.51586366 -0.24814595 -0.30891338
-0.51191056 -0.24885884 -0.3080658
-0.50216055 -0.24932201 -0.30925867
-0.49684453 -0.24652781 -0.30588517
-0.48716152 -0.24700029 -0.30713025
-0.48095751 -0.24760385 -0.30715886
-0.47936594 -0.24839546 -0.30553851
-0.47373915 -0.24603869 -0.30715677
-0.46871531 -0.246685 -0.30679727
-0.46370226 -0.24732591 -0.30644864
-0.4575572 -0.24791242 -0.30653262
-0.44740647 -0.24540308 -0.30986011
-0.44343913 -0.24814232 -0.30959454
-0.38838166 -0.24725367 -0.30803427
-0.61229229 -0.24364063 -0.30958146
-0.59812355 -0.24499339 -0.30947334
-0.59245014 -0.24201122 -0.30587295
-0.58279228 -0.24305506 -0.30557126
-0.56147909 -0.24141863 -0.3087633
-0.5558517 -0.2407589 -0.3056843
-0.54394048 -0.24281265 -0.30651397
-0.53614593 -0.24187291 -0.30782869
-0.5278849 -0.24246442 -0.30840698
-0.52216905 -0.24247347 -0.30680847
-0.51686049 -0.24249792 -0.30509171
-0.51222396 -0.24233416 -0.30671149
-0.4535324 -0.24481381 -0.30976117
-0.38737822 -0.24287134 -0.30826238
-0.38329285 -0.24188654 -0.30712897
-0.55987775 -0.23999757 -0.30661076
-0.55008078 -0.23832458 -0.30721176
-0.54023075 -0.23890144 -0.30827886
-0.53681862 -0.23656833 -0.30902284
-0.53305501 -0.23761797 -0.30730423
-0.52652502 -0.23800153 -0.30804649
-0.52100599 -0.23735815 -0.30505154
-0.51010764 -0.23788774 -0.30661815
-0.49980462 -0.23539615 -0.30981216
-0.46891737 -0.23653318 -0.30941692
-0.38164788 -0.23750179 -0.30753991
-0.37985057 -0.23754403 -0.30941325
-0.53574288 -0.23430815 -0.3089754
-0.53027797 -0.23143566 -0.30550736
-0.51771462 -0.23284209 -0.30536065
-0.51433814 -0.23054618 -0.30612028
-0.38201693 -0.23188543 -0.30656806
-0.37873667 -0.23331352 -0.30668876
-0.52060425 -0.22983846 -0.30618238
-0.51144552 -0.22742265 -0.30894628
-0.38180697 -0.22821899 -0.30776781
-0.37720832 -0.22587255 -0.30685329
-0.53674781 -0.22000226 -0.3084057
-0.53160572 -0.22078049 -0.30789843
-0.52531755 -0.22153574 -0.30780014
-0.51850951 -0.22116104 -0.30769295
-0.50595963 -0.22070432 -0.30960938
-0.3928321 -0.2217667 -0.30666557
-0.38180256 -0.22240935 -0.30881378
-0.37760714 -0.22247827 -0.30710369
-0.37446335 -0.22318734 -0.30625379
-0.55690312 -0.2176877 -0.30843872
-0.53566623 -0.21772978 -0.30835801
-0.53168523 -0.21852964 -0.30745468
-0.5289439 -0.2170887 -0.30571499
-0.5234558 -0.2185699 -0.30668676
-0.50892782 -0.2154808 -0.30997506
-0.49876952 -0.21702951 -0.30906802
-0.4863658 -0.21852733 -0.3090198
-0.47904313 -0.21924977 -0.30942699
-0.46081376 -0.21713652 -0.30859464
-0.39617941 -0.21793483 -0.30747029
-0.39320424 -0.21695611 -0.3073526
-0.38535416 -0.21599962 -0.30717665
-0.38380614 -0.21718842 -0.30747396
-0.59594655 -0.21134928 -0.3067382
-0.59472513 -0.21370313 -0.30754715
-0.58549666 -0.21067938 -0.30506662
-0.58162808 -0.21257068 -0.30790827
-0.57554293 -0.2138271 -0.30643731
-0.56106043 -0.21226764 -0.3085134
-0.55587292 -0.21308678 -0.30795303
-0.54837275 -0.21388227 -0.30818522
-0.47442091 -0.21131735 -0.30720285
-0.46931708 -0.21426047 -0.30726936
-0.46374398 -0.21205384 -0.30887598
-0.45687175 -0.21280581 -0.30919555
-0.43609434 -0.21289012 -0.30993229
-0.39452192 -0.21389851 -0.30707788
-0.38723478 -0.21219367 -0.30791122
-0.59947026 -0.2072514 -0.30985105
-0.59303248 -0.20810542 -0.30959132
-0.58778191 -0.20895594 -0.30896661
-0.58220392 -0.20745361 -0.30804923
-0.57853436 -0.20830545 -0.30693427
-0.57331622 -0.20914894 -0.30633911
-0.52398539 -0.20718783 -0.30800962
-0.51205981 -0.20574707 -0.30946049
-0.50468099 -0.20655835 -0.30978775
-0.47895694 -0.2053507 -0.30915087
-0.47498274 -0.20833412 -0.30878833
-0.46997559 -0.20911852 -0.30839077
-0.46355811 -0.20841004 -0.30941045
-0.45919058 -0.20811132 -0.30859733
-0.45454645 -0.20633979 -0.30878308
-0.44671226 -0.20818518 -0.30969769
-0.44131064 -0.20681942 -0.30910128
-0.40466923 -0.20560971 -0.30981949
-0.39700499 -0.20742404 -0.30637237
-0.39316857 -0.20528963 -0.30565667
-0.38831058 -0.20762773 -0.30690792
-0.60105145 -0.20173258 -0.30714363
-0.59951568 -0.20487729 -0.30942515
-0.5815686 -0.20038965 -0.30701041
-0.57918811 -0.20275435 -0.30820501
-0.57080591 -0.20287515 -0.30727988
-0.56819773 -0.20129219 -0.30908799
-0.5275439 -0.20378411 -0.30615389
-0.50984466 -0.2035062 -0.30981183
-0.48297882 -0.20124242 -0.30929807
-0.45464778 -0.20418175 -0.30832267
-0.40992069 -0.20006496 -0.30934379
-0.40103841 -0.20086904 -0.30806908
-0.39864859 -0.20325577 -0.30679348
-0.39296851 -0.20098814 -0.30727512
-0.38920125 -0.20388387 -0.30882633
-0.60552597 -0.19527945 -0.30583909
-0.59792495 -0.19620121 -0.30594012
-0.57699656 -0.19772218 -0.3055616
-0.49358642 -0.1975311 -0.3080056
-0.4797039 -0.19795343 -0.30983773
-0.46027398 -0.19825675 -0.30980822
-0.45291761 -0.19730516 -0.30878463
-0.44870394 -0.1988066 -0.30945513
-0.4066357 -0.19912088 -0.30930755
-0.40201464 -0.19794068 -0.30775672
-0.39749071 -0.19715741 -0.30781183
-0.39299792 -0.19694266 -0.30646417
-0.38804871 -0.19843121 -0.30585098
-0.60555387 -0.19286832 -0.30541241
-0.59592825 -0.19220115 -0.30713248
-0.58346295 -0.19004139 -0.30705044
-0.57648063 -0.19215521 -0.30721921
-0.57419562 -0.19183758 -0.30543807
-0.50557911 -0.19454435 -0.30962369
-0.5017674 -0.19200712 -0.30808154
-0.49276829 -0.19482441 -0.30698618
-0.483805 -0.19158673 -0.30954379
-0.47156191 -0.19220369 -0.30928254
-0.45211971 -0.19475812 -0.30975255
-0.42049018 -0.19064152 -0.30760494
-0.41760254 -0.19379699 -0.30606246
-0.41247192 -0.19278629 -0.30730101
-0.4073346 -0.19190271 -0.30728433
-0.40306991 -0.19222796 -0.30781221
-0.39819822 -0.19288096 -0.30672455
-0.39335346 -0.19205356 -0.30588531
-0.49685931 -0.1883637 -0.30671901
-0.49356246 -0.18504287 -0.30725244
-0.48170161 -0.18716741 -0.30945098
-0.46839064 -0.18673564 -0.30937159
-0.42523289 -0.18619624 -0.30806178
-0.42249018 -0.18633747 -0.30772293
-0.41846749 -0.18654446 -0.30870023
-0.41293296 -0.18715513 -0.3081176
-0.40744752 -0.18833426 -0.30826235
-0.40173718 -0.1869224 -0.30733627
-0.39755976 -0.18947181 -0.30832082
-0.58296311 -0.18325245 -0.30850267
-0.57548213 -0.18065432 -0.30799267
-0.49196756 -0.18169203 -0.30718207
-0.47133231 -0.18036485 -0.30946848
-0.45003277 -0.18026017 -0.30533004
-0.43721706 -0.18350324 -0.30834559
-0.43119365 -0.18438286 -0.30842087
-0.42720509 -0.18171033 -0.3065818
-0.42351651 -0.18335176 -0.30676955
-0.4183248 -0.18162611 -0.3070206
-0.41308841 -0.18297303 -0.30763769
-0.40943754 -0.18390378 -0.30607337
-0.40227264 -0.18303983 -0.30517611
-0.57551694 -0.1782672 -0.3075628
-0.57323682 -0.17593676 -0.30789363
-0.47719991 -0.17772238 -0.30766848
-0.46233812 -0.17729607 -0.30855316
-0.45354056 -0.17904159 -0.30735037
-0.42215028 -0.17719951 -0.30707109
-0.41743985 -0.17828406 -0.3073017
-0.41295198 -0.17814066 -0.30513328
-0.58656907 -0.1723423 -0.30543926
-0.57965469 -0.17013955 -0.3072826
-0.57270783 -0.17236531 -0.30743891
-0.43178165 -0.17089328 -0.30571401
-0.42716116 -0.17298 -0.30671412
-0.4222258 -0.17327805 -0.30820295
-0.41831899 -0.17249255 -0.30785841
-0.57718283 -0.16727459 -0.306752
-0.57335234 -0.16633897 -0.30617306
-0.56069636 -0.16837679 -0.30571255
-0.45590323 -0.16527086 -0.30500209
-0.44050378 -0.16610295 -0.30549383
-0.43761414 -0.16597971 -0.30622682
-0.43293047 -0.16758375 -0.30624446
-0.42870736 -0.16865551 -0.30689058
-0.42239642 -0.16748825 -0.30761087
-0.41661906 -0.16766749 -0.30521894
-0.58262134 -0.16197389 -0.30739632
-0.57856989 -0.16293082 -0.30637547
-0.57452571 -0.16388412 -0.30536196
-0.56075454 -0.16201201 -0.30950025
-0.55846024 -0.16367896 -0.30561393
-0.55330706 -0.16466385 -0.30501989
-0.47233796 -0.16389601 -0.30835655
-0.45862442 -0.16442524 -0.30622852
-0.45465869 -0.16385914 -0.30991048
-0.44287288 -0.16289417 -0.30626112
-0.4379181 -0.16254334 -0.30801627
-0.43299744 -0.16289444 -0.30608928
-0.42726701 -0.16208908 -0.30916965
-0.42491233 -0.16345751 -0.30641675
-0.41560709 -0.16108182 -0.30960691
-0.41366607 -0.16040151 -0.30554056
-0.40189588 -0.1601928 -0.3053053
-0.39584184 -0.1623916 -0.30641988
-0.39341435 -0.16268551 -0.30578038
-0.37271732 -0.16077435 -0.30518571
-0.36689258 -0.16173804 -0.30539471
-0.57226634 -0.15913697 -0.3052623
-0.55718201 -0.15815824 -0.30752262
-0.55110848 -0.1560363 -0.30913243
-0.547683 -0.15773986 -0.30564523
-0.54254317 -0.15719521 -0.30969626
-0.52893591 -0.15698102 -0.30928883
-0.51993537 -0.15656734 -0.30737293
-0.49911535 -0.15977174 -0.30780715
-0.45127043 -0.15725665 -0.30671132
-0.44746086 -0.15677878 -0.3070296
-0.4429265 -0.15923461 -0.30612722
-0.43704757 -0.15847282 -0.30728471
-0.43327111 -0.15738915 -0.30758354
-0.41193902 -0.15978308 -0.30839676
-0.40344596 -0.15942189 -0.30688334
-0.3941294 -0.15876511 -0.30682623
-0.38399556 -0.15782338 -0.30822653
-0.37801018 -0.15702224 -0.30693316
-0.37253737 -0.15726018 -0.30567643
-0.36428893 -0.15698192 -0.30771923
-0.45248318 -0.15317252 -0.30822477
-0.4465614 -0.15267287 -0.30783713
-0.44334492 -0.15467818 -0.30780447
-0.43807906 -0.15375131 -0.3079516
-0.43370017 -0.15244558 -0.30767202
-0.4105458 -0.15155157 -0.30773878
-0.40759599 -0.15299445 -0.30702651
-0.40414298 -0.15200213 -0.30698842
-0.38679335 -0.15270902 -0.3084096
-0.38295782 -0.15179308 -0.30623999
-0.37962592 -0.15412624 -0.30800879
-0.37159425 -0.15203905 -0.30716074
-0.36706883 -0.15332019 -0.30700454
-0.62453079 -0.14536184 -0.30651587
-0.46200061 -0.14501697 -0.30821657
-0.45727035 -0.14716256 -0.30913472
-0.45259091 -0.14666668 -0.30786839
-0.44728762 -0.14800858 -0.30707178
-0.44330192 -0.14647342 -0.30646431
-0.43681419 -0.14647199 -0.3074629
-0.4331468 -0.14633782 -0.30523258
-0.42208064 -0.1451793 -0.30831844
-0.41735646 -0.14674963 -0.30792868
-0.41163951 -0.14827038 -0.30686146
-0.40729803 -0.14757705 -0.30713868
-0.40483242 -0.1457628 -0.30727905
-0.39705577 -0.14750576 -0.30806592
-0.39435858 -0.14821684 -0.30645835
-0.37979761 -0.14592221 -0.30580232
-0.3706038 -0.14925703 -0.30706829
-0.36778352 -0.14670163 -0.30725983
-0.62400997 -0.14458728 -0.30908003
-0.61408448 -0.14089786 -0.3089765
-0.46147603 -0.14346837 -0.30946025
-0.45693997 -0.14255033 -0.30792576
-0.45299223 -0.14312698 -0.30749249
-0.44813594 -0.14308524 -0.30677584
-0.44393539 -0.14309174 -0.30783308
-0.43690598 -0.1429368 -0.30779791
-0.4282335 -0.14415705 -0.30677733
-0.4228026 -0.14182164 -0.30695388
-0.41545522 -0.14189398 -0.30947995
-0.41268587 -0.14210251 -0.30718389
-0.40691161 -0.14120704 -0.30720258
-0.40244681 -0.14315626 -0.30863535
-0.39843717 -0.14268953 -0.30648902
-0.39328045 -0.14272349 -0.30772144
-0.38827229 -0.14180493 -0.30603817
-0.38262618 -0.14360842 -0.30700171
-0.37709519 -0.14215441 -0.30768442
-0.37368512 -0.1416447 -0.30774674
-0.36683995 -0.14309563 -0.30726281
-0.36474025 -0.14078543 -0.30875131
-0.62399232 -0.13954547 -0.30824813
-0.46603751 -0.13538522 -0.30833316
-0.45684421 -0.13978949 -0.30603662
-0.43312302 -0.13788602 -0.3075377
-0.42862859 -0.1356647 -0.30900294
-0.42342997 -0.1379033 -0.30902863
-0.41630197 -0.13747609 -0.30681691
-0.41267681 -0.13604991 -0.30757645
-0.40773711 -0.13746473 -0.30630544
-0.40274608 -0.13724449 -0.30696735
-0.39087319 -0.13989908 -0.30604497
-0.38671088 -0.13679582 -0.30742836
-0.37799588 -0.13697447 -0.30717364
-0.37305534 -0.13879897 -0.30678949
-0.3682169 -0.13745767 -0.30747569
-0.36433551 -0.13760641 -0.30825275
-0.46262684 -0.13267668 -0.30801669
-0.43535411 -0.13362283 -0.30989444
-0.43181717 -0.13260633 -0.30985543
-0.42968988 -0.1333949 -0.30858064
-0.41613632 -0.13464527 -0.30930287
-0.40575409 -0.13444477 -0.30670053
-0.39530998 -0.13275847 -0.30808121
-0.39450431 -0.13140173 -0.3092733
-0.38138601 -0.1325324 -0.3085224
-0.37806427 -0.1329803 -0.30807719
-0.37358043 -0.13313904 -0.30949432
-0.36781034 -0.13315886 -0.30942571
-0.36332059 -0.13215968 -0.30809683
-0.66868043 -0.12687969 -0.30819926
-0.66448891 -0.12795511 -0.30701742
-0.656811 -0.12925044 -0.30691448
-0.53437328 -0.12824209 -0.30969384
-0.52312219 -0.12570584 -0.30805558
-0.51299417 -0.1283702 -0.30946261
-0.39711264 -0.12707134 -0.3081902
-0.39406693 -0.12642992 -0.30799785
-0.38663325 -0.12830329 -0.30930316
-0.38408771 -0.1268332 -0.30817068
-0.37775755 -0.12826329 -0.30746061
-0.36360079 -0.12717277 -0.30776265
-0.58339953 -0.12018785 -0.30746356
-0.57998073 -0.12293924 -0.30900326
-0.5702424 -0.12192902 -0.30940452
-0.56280828 -0.12199285 -0.30928928
-0.55426359 -0.1221502 -0.30956876
-0.53383827 -0.12175097 -0.30626771
-0.52203822 -0.12098236 -0.30757105
