# .PCD v0.7 - Point Cloud Data file format
VERSION 0.7
FIELDS x y z
SIZE 4 4 4
TYPE F F F
COUNT 1 1 1
WIDTH 1317
HEIGHT 1
VIEWPOINT 0 0 0 1 0 0 0
POINTS 1317
DATA ascii
0.067728899 0.21334726 -0.0095874071
0.074684918 0.21341068 -0.0094721317
0.077412143 0.21075916 -0.0095826983
0.081511274 0.21220994 -0.0098782182
0.091601118 0.21315935 -0.0074636489
0.10458243 0.21301721 -0.0053485632
0.10783321 0.21369839 -0.0068153143
0.11146332 0.21242508 -0.0067450553
0.11794192 0.2138979 -0.0050501823
0.13151729 0.21294796 -0.0060606599
0.13869211 0.21420635 -0.0063933432
0.14210759 0.21187752 -0.0064296327
0.14697793 0.21249887 -0.0064278482
0.1526777 0.21436273 -0.0060329139
0.15839139 0.2122115 -0.0073046833
0.1628157 0.21238512 -0.0069729686
0.16737854 0.21262343 -0.0058745444
0.17237718 0.21288627 -0.007535418
0.17747903 0.21311842 -0.0068729371
0.18214661 0.21246302 -0.0064376295
0.18819764 0.21274689 -0.0073749782
0.19252113 0.21198373 -0.0075999796
0.19702055 0.21234851 -0.0067909597
0.201581 0.21333177 -0.0063718408
0.20700316 0.21249016 -0.0072544962
0.21205981 0.21220969 -0.0064858994
0.21823077 0.21277851 -0.0081376433
0.22267172 0.21309912 -0.0079447031
0.22723627 0.21184295 -0.0087639689
0.23240681 0.21187642 -0.009502816
0.24315393 0.21160077 -0.0093394518
0.24713464 0.21263683 -0.0082867146
0.25287619 0.21312559 -0.0089404583
0.2679016 0.21232364 -0.0091067404
0.27208731 0.21227241 -0.0085784318
0.27724242 0.21327984 -0.0070673921
-0.61434793 0.21743953 -0.0076303086
-0.6037361 0.21775435 -0.0077568293
-0.025666922 0.21731173 -0.009009853
-0.021828093 0.21730745 -0.0070270645
-0.017672632 0.21746045 -0.0086382404
-0.012598222 0.21713218 -0.0082443235
-0.0071420372 0.21752296 -0.0079737753
-0.0030485194 0.21729027 -0.0071022906
0.0026235431 0.21714355 -0.0065174997
0.0071875453 0.21744923 -0.0061916113
0.012737453 0.21728376 -0.0064431787
0.018354833 0.21782328 -0.0066676936
0.023147464 0.21694525 -0.0067802072
0.027451416 0.2176704 -0.0058618188
0.03260811 0.21688746 -0.0065325103
0.03791374 0.21771975 -0.008283834
0.042534083 0.21807031 -0.0083335787
0.046616394 0.21663837 -0.0080884295
0.051750816 0.21712098 -0.0080060242
0.058015455 0.21808358 -0.0088968873
0.062933251 0.21780998 -0.0084952861
0.067569122 0.21704423 -0.0081477761
0.073356554 0.21628939 -0.0068560741
0.076530971 0.21859305 -0.0068825348
0.084144175 0.21918267 -0.0094437599
0.086962305 0.21700533 -0.0093265967
0.092146561 0.21728173 -0.0091885626
0.098019525 0.21846466 -0.007492274
0.10396647 0.21859135 -0.0060971975
0.10873055 0.21696319 -0.0083149672
0.11271998 0.2173741 -0.0064107776
0.11521548 0.21536945 -0.0050842762
0.13283251 0.21759689 -0.0055927634
0.13668844 0.21943577 -0.0055391192
0.14171442 0.21776661 -0.0065223724
0.14766349 0.21710533 -0.0063440651
0.15287714 0.21807143 -0.0065067648
0.15797476 0.21766761 -0.0071839988
0.16169411 0.21723211 -0.007496933
0.1671181 0.21722385 -0.0068523409
0.17292282 0.21747053 -0.0071175457
0.17860623 0.21714114 -0.0070555606
0.18307316 0.21698938 -0.0077104568
0.18661626 0.21833591 -0.0077815256
0.19234064 0.21784976 -0.0079974411
0.19796789 0.21690543 -0.0088791968
0.20262933 0.21788287 -0.0077718995
0.20775634 0.21715993 -0.006931141
0.2127914 0.21724647 -0.0081776381
0.21666987 0.21805656 -0.009152472
0.22183117 0.21752822 -0.0082261562
0.22717327 0.21790677 -0.0078482479
0.23311549 0.21764989 -0.0094603449
0.23972213 0.21741711 -0.0091833472
0.24302618 0.21792582 -0.0089527247
0.2477262 0.21752068 -0.0088947294
0.25203413 0.21718155 -0.0094525218
0.25609866 0.21708564 -0.0095705194
0.26919702 0.21755514 -0.0091534555
0.27389127 0.21575688 -0.0093770027
0.27791905 0.2174743 -0.0073300134
-0.61649746 0.22207458 -0.0074454248
-0.61108214 0.22084951 -0.0063174963
-0.60719699 0.22471642 -0.0097988248
-0.60309923 0.22281079 -0.0075787506
-0.027004173 0.22269544 -0.0082558794
-0.023358218 0.22104165 -0.0070679821
-0.017347425 0.22295961 -0.0090238173
-0.012935027 0.22190025 -0.0083198994
-0.0085214823 0.22225383 -0.0067919791
-0.0031815618 0.22278342 -0.0064506978
0.0026537329 0.22211918 -0.0071068853
0.0075528622 0.22175173 -0.0062090158
0.012209217 0.22331476 -0.0060427389
0.016905591 0.2219345 -0.006396547
0.022739947 0.22258973 -0.0069373101
0.028141305 0.22189437 -0.0072840601
0.032735407 0.22263987 -0.0071134171
0.037046641 0.22248894 -0.0068075061
0.042328939 0.22305481 -0.0068231523
0.047980923 0.22194147 -0.0087445378
0.052052684 0.22259304 -0.008027494
0.05745776 0.22196253 -0.0086748451
0.064173773 0.2230348 -0.009055227
0.068236493 0.22246128 -0.0087547498
0.072838113 0.22242165 -0.0091659725
0.077237487 0.2228362 -0.0082787424
0.082515344 0.22223133 -0.0090143383
0.088839278 0.22203751 -0.0094663203
0.094740868 0.22062947 -0.008695066
0.095106065 0.22346799 -0.0055657625
0.10248008 0.22123212 -0.0058622956
0.10872816 0.22276242 -0.0059371293
0.11316595 0.22184002 -0.0050631762
0.12863964 0.22390674 -0.0055474043
0.13198224 0.22330435 -0.0059076548
0.13565595 0.22240764 -0.0067977509
0.14232995 0.2233382 -0.005454421
0.14840405 0.22179191 -0.0070386231
0.15248521 0.22264929 -0.0065194569
0.15692161 0.22268628 -0.0068075061
0.16189238 0.2221638 -0.0061545521
0.16789681 0.22321883 -0.006412223
0.174429 0.220854 -0.0089403391
0.17659609 0.2218696 -0.0074026287
0.1815334 0.2223739 -0.0067323297
0.18722601 0.22282991 -0.0070838183
0.19234575 0.22212102 -0.0082582235
0.19633 0.22281218 -0.0079967184
0.2023797 0.22270109 -0.0076656193
0.20784521 0.22201324 -0.0075524598
0.21196327 0.22262327 -0.0079353154
0.21739231 0.22234748 -0.0086370707
0.22252193 0.22285087 -0.0072699548
0.22789697 0.22301766 -0.0076069115
0.23390724 0.22181524 -0.0090740724
0.23764165 0.22354613 -0.0095378952
0.24243712 0.22234322 -0.0091752606
0.24704342 0.22283614 -0.0090030236
0.25837535 0.22295471 -0.0097507434
0.26553652 0.22235145 -0.0089030862
0.27233198 0.22305946 -0.0092664361
0.27762222 0.22197415 -0.0083281891
-0.6151523 0.2264871 -0.0099167228
-0.611314 0.22612292 -0.0084008574
-0.60786599 0.22943395 -0.0050131679
-0.60225117 0.22752091 -0.0077666938
-0.030359 0.22513014 -0.0093928576
-0.02675564 0.22709014 -0.0068300865
-0.02285422 0.22820863 -0.0075682136
-0.017329557 0.2286409 -0.0085752904
-0.013703421 0.2263796 -0.0079849809
-0.007583946 0.22751135 -0.0075716972
-0.0026875138 0.22837372 -0.0065897503
0.0019091368 0.22693419 -0.006714195
0.007975176 0.22759163 -0.0074030757
0.012630801 0.22746263 -0.0073695383
0.016470402 0.22676438 -0.0064135194
0.020579875 0.22846629 -0.0070507131
0.027504906 0.22791299 -0.0067317188
0.032335419 0.22658123 -0.0074007311
0.037172675 0.2274594 -0.0066753626
0.042253196 0.22922048 -0.0061198771
0.047202542 0.22710727 -0.0072848052
0.053199723 0.22771859 -0.0093421042
0.057264246 0.22794497 -0.0087727755
0.062641695 0.22730036 -0.0094458461
0.068509147 0.2269474 -0.0089980364
0.072882518 0.22736579 -0.0065973299
0.078903034 0.22695553 -0.0088846684
0.08088544 0.22528249 -0.0085849166
0.086154893 0.22823563 -0.0094378889
0.10308092 0.22731304 -0.005284071
0.11183731 0.22787689 -0.0054275692
0.11700269 0.2276594 -0.0056992173
0.12402987 0.22913976 -0.0055500269
0.12873694 0.22778077 -0.0058862865
0.13273206 0.22805518 -0.0066124499
0.13727887 0.22823793 -0.0061802268
0.14338717 0.22743465 -0.0061622262
0.14668371 0.22738147 -0.0063145636
0.15180275 0.22783972 -0.0065478086
0.15769789 0.22712131 -0.0063987225
0.16307721 0.22725472 -0.0071905255
0.1669383 0.22736257 -0.0068240762
0.17130966 0.22735673 -0.0071548424
0.17703283 0.22745384 -0.0072684288
0.18250448 0.22742553 -0.0069345236
0.1887376 0.22708884 -0.0070094168
0.19338451 0.2268243 -0.0073698163
0.19767217 0.22784893 -0.0063229799
0.20248716 0.22720183 -0.0062784753
0.20710421 0.22815625 -0.0070289373
0.21332052 0.2259502 -0.009065479
0.21796478 0.22753949 -0.008755778
0.22278455 0.22794406 -0.0083472878
0.227635 0.22745758 -0.0084740222
0.23245916 0.22696415 -0.0086209178
0.23741023 0.22781372 -0.0095956726
0.24221751 0.22686918 -0.0097413659
0.24876183 0.22657077 -0.0094983578
0.25486362 0.22754465 -0.0099854469
0.25844216 0.22798815 -0.0091044307
0.26010916 0.22947593 -0.0087885261
0.26744315 0.22718404 -0.009103219
0.27169138 0.22815214 -0.009031564
0.27794561 0.22711062 -0.0075778887
-0.61225992 0.23095874 -0.0067459643
-0.60752785 0.23350999 -0.0068936944
-0.60209697 0.23251198 -0.0066880286
-0.027200093 0.23151152 -0.0076169767
-0.023660395 0.23181078 -0.0071785511
-0.018051984 0.23267579 -0.0090798456
-0.010031581 0.23398204 -0.009872973
-0.0070165843 0.23246038 -0.0097118914
-0.0023764253 0.23273221 -0.0073233843
0.0031004548 0.23229152 -0.006942153
0.0072337538 0.23237678 -0.0070179254
0.013115734 0.23298416 -0.0075385422
0.018098578 0.23216164 -0.007270962
0.022288144 0.23237258 -0.0066114962
0.027079323 0.2321717 -0.0077995458
0.032698464 0.23267063 -0.0082096336
0.038049683 0.23255429 -0.0075555444
0.042384546 0.23239052 -0.0073443055
0.04603219 0.23168509 -0.0063201487
0.052044284 0.23276687 -0.0082738278
0.057645224 0.23297417 -0.0081017166
0.062341303 0.23166943 -0.0088640647
0.066788629 0.23238267 -0.0088158846
0.073267207 0.23279695 -0.0072019696
0.077432364 0.23274548 -0.009585917
0.084312081 0.2339125 -0.0070713758
0.087350808 0.23306739 -0.0068713031
0.097610928 0.23412867 -0.0069150329
0.10469341 0.23185624 -0.0052047372
0.10727967 0.23450536 -0.0051103234
0.11268795 0.23262893 -0.0062706866
0.11683527 0.23178579 -0.0056633949
0.12127937 0.23320006 -0.0063322186
0.12758288 0.23282845 -0.0065386533
0.13398767 0.23215477 -0.0069314241
0.13686641 0.23254383 -0.0057327151
0.14174855 0.23218364 -0.0068708956
0.14730951 0.23306224 -0.006449461
0.15323389 0.23233442 -0.0062731951
0.15723869 0.23307657 -0.0063428879
0.16070916 0.23347712 -0.0053178966
0.16659951 0.23221634 -0.007359758
0.1725798 0.23224711 -0.0067482232
0.17822666 0.23287623 -0.0068972907
0.18210328 0.23213802 -0.0076611936
0.18699798 0.23165636 -0.0083536385
0.19198513 0.23237261 -0.0067651784
0.19674368 0.23322807 -0.0061211982
0.20264986 0.23221043 -0.0076388358
0.20741586 0.23298861 -0.008660038
0.21223712 0.23177145 -0.0086059123
0.21668747 0.23296018 -0.0082035363
0.22176249 0.23296101 -0.0088798646
0.22702079 0.23276258 -0.0088113444
0.23250476 0.23226151 -0.009269869
0.23773324 0.23245759 -0.009470975
0.24048012 0.23428108 -0.0092766881
0.24678645 0.23281913 -0.0092409849
0.25092033 0.23265241 -0.0093921022
0.25656766 0.23156233 -0.0093471408
0.2627067 0.23248182 -0.009676218
0.26726216 0.23297873 -0.0080328342
0.27281058 0.23251271 -0.008313328
0.27676955 0.2326066 -0.0078038541
-0.61104447 0.23585254 -0.0077782869
-0.60260308 0.23802079 -0.0057970583
-0.025913399 0.23724295 -0.0073906407
-0.022578403 0.23831621 -0.0061748521
-0.018010274 0.23775285 -0.0083978279
-0.012789071 0.23566377 -0.0094594657
-0.0069973073 0.23680025 -0.0083545046
-0.0017448217 0.23808831 -0.0080429912
0.002892832 0.23663573 -0.0082488852
0.0081568658 0.23754349 -0.0078390092
0.011761874 0.23763615 -0.0063636601
0.017590905 0.23759957 -0.0079202894
0.023038715 0.23746809 -0.0072626472
0.027680298 0.23732789 -0.0073519945
0.033470135 0.23750108 -0.0080879331
0.037919506 0.2373407 -0.0080051869
0.043339968 0.23787761 -0.0082504153
0.047898531 0.23650306 -0.0087072449
0.05100134 0.23798588 -0.0082333386
0.056259789 0.23726785 -0.0086964369
0.062213302 0.23753059 -0.0090827346
0.068306871 0.23718718 -0.008979762
0.073439389 0.23809631 -0.0099701285
0.076956868 0.2357778 -0.0093675852
0.082411915 0.23758489 -0.0098121166
0.087705031 0.23575334 -0.0076616406
0.09444508 0.23695983 -0.009962976
0.1017868 0.23787649 -0.0057780743
0.10811593 0.23710911 -0.0055843592
0.11283217 0.23798032 -0.0060942769
0.11699573 0.23733304 -0.0066423616
0.12273373 0.23633918 -0.0066595376
0.12795037 0.23813505 -0.0074539981
0.13218497 0.2367907 -0.0066323676
0.13682066 0.23778258 -0.0062415302
0.14294815 0.23721032 -0.0074085235
0.14805239 0.23776759 -0.0071472824
0.15186152 0.23683994 -0.007357806
0.15674528 0.23778883 -0.0069243549
0.16193531 0.23767599 -0.0068035275
0.16801679 0.23666741 -0.0070845634
0.17301133 0.23763624 -0.0070981858
0.1772882 0.23781793 -0.0066255033
0.18195556 0.23733664 -0.0079102963
0.18788594 0.23749641 -0.0086469054
0.19286531 0.23737857 -0.0074320585
0.19797193 0.23744342 -0.0082335351
0.20258585 0.23768841 -0.0083639324
0.20721546 0.23757322 -0.0077783018
0.21211401 0.23713639 -0.0077448129
0.21727969 0.23753862 -0.008658275
0.22278403 0.23692387 -0.009312789
0.22757459 0.23806813 -0.0088344663
0.23233633 0.23775558 -0.0090847211
0.2379915 0.23779674 -0.0094179753
0.24156897 0.2373489 -0.0092230737
0.24711898 0.23759353 -0.0091672298
0.25142005 0.23893315 -0.0094007654
0.25767791 0.23712222 -0.0089735985
0.2630989 0.23735417 -0.0089336634
0.26776108 0.2360708 -0.008660634
0.27198231 0.23731916 -0.0090247393
0.27701449 0.23730727 -0.0079885898
-0.60860527 0.24221885 -0.0068280101
-0.60218036 0.24248101 -0.0081967711
-0.59954524 0.24230102 -0.0059570074
-0.026095068 0.24302499 -0.0081564393
-0.022774968 0.2421972 -0.0057907254
-0.019590676 0.24244553 -0.0079170763
-0.01480031 0.24499285 -0.0098224282
-0.0071761012 0.24251553 -0.0087472945
-0.0033082168 0.24220942 -0.0076386728
0.0024490058 0.24305533 -0.0087164342
0.0077797025 0.24225007 -0.0088285357
0.012136579 0.24288072 -0.0082265334
0.0167377 0.24190152 -0.0080852909
0.022757817 0.24265392 -0.0082788346
0.028232813 0.2430798 -0.0084763365
0.032196507 0.24156597 -0.0080237091
0.037315052 0.24358754 -0.0083276033
0.041648954 0.24215135 -0.0084341615
0.04714904 0.24229598 -0.008034694
0.052861646 0.24326092 -0.0096051693
0.057519943 0.24242756 -0.0092632025
0.061966471 0.24279401 -0.0083561391
0.067024596 0.24204636 -0.0086565614
0.071640372 0.2422501 -0.009951055
0.079729706 0.24377801 -0.0097836852
0.080623776 0.24171363 -0.0097931623
0.10199022 0.2428641 -0.0052268803
0.10824558 0.24236573 -0.0060619316
0.11200157 0.24123023 -0.0057016611
0.11907106 0.24268325 -0.0055092773
0.12397569 0.24217755 -0.0074788132
0.12741901 0.24223489 -0.0063802004
0.13129203 0.24288212 -0.0055315695
0.13745539 0.2424161 -0.0077899494
0.14244831 0.24212897 -0.0080756992
0.14790274 0.24183859 -0.0070810169
0.15228288 0.24352831 -0.0058759749
0.1574918 0.24293754 -0.0066744089
0.16303802 0.24198321 -0.0080893338
0.166926 0.24259087 -0.0079967026
0.1717155 0.24351054 -0.0075674802
0.17753281 0.24240279 -0.0085998671
0.18279777 0.24180287 -0.008791551
0.18743254 0.24227336 -0.0087004304
0.19230978 0.2424113 -0.0075320206
0.19615282 0.24322458 -0.0069780648
0.20122519 0.24240808 -0.0081621259
0.20732348 0.24291435 -0.008587515
0.21290478 0.24199662 -0.008713305
0.21816832 0.24252178 -0.0093116462
0.22104791 0.24264492 -0.0092628598
0.22726262 0.24175072 -0.0091296835
0.23150408 0.24245787 -0.0091018528
0.23663376 0.24270284 -0.0086423354
0.24245968 0.24247821 -0.0093810083
0.24896921 0.24263436 -0.0091614723
0.25309527 0.24243483 -0.0093099922
0.25787336 0.24280007 -0.0088459151
0.26479337 0.24103753 -0.0094348192
0.26674128 0.2433461 -0.0084449844
0.27188712 0.24261688 -0.0092575699
0.27736703 0.24213579 -0.0078183692
-0.61074704 0.24551845 -0.0071786046
-0.60903603 0.24716166 -0.005497396
-0.60132533 0.24753492 -0.0074291825
-0.5991922 0.24706718 -0.0073459744
-0.026681075 0.24852484 -0.0075349212
-0.023765028 0.2467078 -0.0071076392
-0.017174745 0.24845469 -0.0083427532
-0.011933386 0.24846646 -0.0090793073
-0.0081762075 0.24831761 -0.0095197558
-0.0037298005 0.24680762 -0.0094569921
0.0021505754 0.24707265 -0.0087926388
0.0077878712 0.24773535 -0.0083538536
0.012769818 0.24751776 -0.008795172
0.016706958 0.24753737 -0.0087170601
0.02157543 0.24739833 -0.0090667605
0.027313948 0.24720627 -0.0088800788
0.032933041 0.24772525 -0.0093052685
0.037127476 0.24749739 -0.0088972254
0.042788699 0.24731351 -0.0087666661
0.046784401 0.24747813 -0.0080536203
0.052638032 0.24731299 -0.0092009306
0.057538167 0.24714033 -0.0099495947
0.066633731 0.24656141 -0.0097205639
0.071440764 0.24657978 -0.009522438
0.078907974 0.24740086 -0.0068506398
0.082820833 0.24955551 -0.0094001293
0.086951077 0.2484744 -0.0054214001
0.10216281 0.24762119 -0.0059734583
0.10633333 0.24847911 -0.0058248639
0.11086584 0.24729967 -0.0056900978
0.11780776 0.24737652 -0.0058865547
0.12168696 0.24797408 -0.0074694552
0.12737721 0.24792752 -0.0066790939
0.13302256 0.24657582 -0.0065621585
0.13789339 0.24857967 -0.0069263377
0.14248043 0.24752063 -0.0076707401
0.14678322 0.24734128 -0.0067628147
0.15213791 0.24760339 -0.0058068484
0.15896997 0.24690628 -0.0085516274
0.16210696 0.24777295 -0.008161068
0.16701677 0.24737595 -0.0085972399
0.17346258 0.2472095 -0.0095882816
0.17758234 0.2483263 -0.0091096163
0.1825299 0.24713767 -0.0088458508
0.18827207 0.24705239 -0.0091149211
0.19175439 0.24745853 -0.0076360204
0.19698565 0.24764916 -0.0078554899
0.20281711 0.2473065 -0.0082667591
0.20829308 0.24805808 -0.008148456
0.21417002 0.24684899 -0.00954777
0.21622427 0.24874072 -0.0087968512
0.22131096 0.24759485 -0.0090963989
0.22709265 0.24729016 -0.0089586135
0.23244968 0.24735126 -0.0092810038
0.23745234 0.24639229 -0.0085453093
0.24149793 0.24867134 -0.0091241896
0.24702615 0.24669182 -0.009486258
0.25113684 0.24874167 -0.0090547502
0.25652003 0.24759924 -0.0095514357
0.26188782 0.24788482 -0.0093485909
0.2681931 0.24634987 -0.0089591341
0.2726945 0.24729197 -0.009090567
0.27760482 0.2470524 -0.0082278466
-0.60429502 0.25272682 -0.0080594616
-0.59858644 0.25288084 -0.0085685402
-0.027359229 0.25312287 -0.0068591833
-0.022654518 0.25270313 -0.0065661818
-0.018221175 0.25308052 -0.0081071854
-0.013133029 0.25148788 -0.0085489554
-0.007276535 0.25241596 -0.008765012
-0.0045351982 0.25072134 -0.0091951489
0.0004068017 0.25468493 -0.0093092918
0.0070448518 0.25311774 -0.0086806118
0.012040198 0.25224268 -0.0084211677
0.01696072 0.25251019 -0.0087036891
0.021740377 0.25154245 -0.0088561578
0.027593574 0.25256458 -0.0088264346
0.032059267 0.25236216 -0.0087453127
0.037820768 0.25225297 -0.0086867567
0.04688403 0.25214937 -0.0094505949
0.051724553 0.25250748 -0.0093301833
0.056306232 0.25193858 -0.0097168488
0.063027054 0.25488904 -0.0096823573
0.070667952 0.25029856 -0.0093009472
0.082207367 0.25153428 -0.0064794719
0.087788872 0.25299662 -0.0057651601
0.092891157 0.25476897 -0.0055353045
0.097811282 0.25294444 -0.0053386488
0.10299711 0.25308391 -0.0059161484
0.10789913 0.25265333 -0.007686168
0.11380789 0.25364119 -0.0063345432
0.11650415 0.25465876 -0.0070255995
0.12267073 0.2520341 -0.0068920455
0.1282974 0.25307187 -0.0077967844
0.13204908 0.25247958 -0.0067017227
0.135452 0.25219893 -0.0050965548
0.14230269 0.25312632 -0.0069455802
0.14823189 0.2521286 -0.0076919794
0.15259486 0.25234449 -0.0070895702
0.15739299 0.25121394 -0.0073020258
0.1612332 0.25254947 -0.0068973005
0.16807409 0.25220484 -0.0077285022
0.17305833 0.25378445 -0.0086578326
0.17653149 0.25213099 -0.0086126626
0.18136661 0.25168532 -0.0090980232
0.18711846 0.25224987 -0.0084276497
0.19318634 0.25243032 -0.008386001
0.19822009 0.25152078 -0.0082396073
0.20234467 0.2532562 -0.0082650036
0.20760286 0.25270763 -0.0076970607
0.21193953 0.25256869 -0.0076854229
0.21791057 0.25300851 -0.0092017651
0.22289944 0.25163537 -0.009230122
0.22723258 0.25211078 -0.0090599656
0.2323699 0.25278628 -0.0092720194
0.23718108 0.25278866 -0.0087895198
0.24098668 0.25305584 -0.0081135035
0.24729037 0.25234571 -0.0095167756
0.25258225 0.25281411 -0.0089836419
0.25816107 0.2513926 -0.0099056363
0.26381177 0.25275609 -0.0095449984
0.27096033 0.25201339 -0.0086687803
0.27647179 0.25304696 -0.0083157681
-0.61166018 0.25793627 -0.0055883527
-0.60653061 0.25677937 -0.0076230764
-0.60068727 0.25750804 -0.0094790757
-0.59917611 0.25639278 -0.0067746639
-0.15228301 0.25957751 -0.0094831586
-0.14280999 0.25984025 -0.0073846579
-0.13305879 0.2595346 -0.0091661215
-0.032355875 0.25790384 -0.0061897039
-0.027626624 0.25817552 -0.0082030892
-0.023514444 0.25710693 -0.0055288435
-0.018991753 0.25731999 -0.0054278672
-0.012660623 0.25558525 -0.0098538995
-0.007160604 0.25730041 -0.0094279451
-0.0024620891 0.25720951 -0.0084819598
0.0046984553 0.25853544 -0.0086557269
0.008322224 0.25778699 -0.0087480247
0.012115717 0.25662008 -0.0078754425
0.016960165 0.25755343 -0.0074513755
0.025811911 0.25518003 -0.0093085766
0.03189373 0.25833806 -0.00882411
0.036492009 0.25689963 -0.0092721181
0.048837811 0.25990087 -0.0097064376
0.056564718 0.25524926 -0.0092800856
0.086872876 0.25672969 -0.005802989
0.0922933 0.25672838 -0.0065891943
0.096886098 0.25796765 -0.0057469308
0.10191747 0.25694403 -0.0056818724
0.10924762 0.25743258 -0.0072269142
0.11253729 0.25837213 -0.0067284703
0.11757818 0.2581687 -0.0067745596
0.12222222 0.25702542 -0.0058877319
0.12730703 0.25832713 -0.0069884658
0.13216478 0.25785536 -0.0064447969
0.13679539 0.25824597 -0.0065575242
0.14308865 0.25716603 -0.0067516766
0.14707549 0.25794986 -0.0085191531
0.15150236 0.25727752 -0.0077246428
0.15727651 0.25740126 -0.0075800419
0.16234013 0.25786081 -0.0062561631
0.16880974 0.25685462 -0.0084168911
0.17135058 0.25841907 -0.0082785292
0.17642683 0.25761083 -0.007902056
0.1825282 0.25736347 -0.0075782775
0.18773545 0.25734243 -0.0075590014
0.19213124 0.25803694 -0.0076195598
0.19661379 0.25694698 -0.0077747256
0.20121388 0.25777647 -0.0084820986
0.20648091 0.25721446 -0.0079029948
0.21248136 0.25696129 -0.009132877
0.21544069 0.25891671 -0.0091979206
0.22248256 0.25778833 -0.0091050742
0.22745459 0.25738963 -0.0082853315
0.23226492 0.25641856 -0.0085992413
0.2364037 0.25834328 -0.0087772757
0.24254668 0.2570976 -0.0094968872
0.24844109 0.25833151 -0.0093403654
0.26278085 0.25713015 -0.0096369982
0.26777434 0.25708449 -0.0090989321
0.2718226 0.25768 -0.0076649664
0.27797034 0.25716364 -0.0070325173
-0.6158663 0.26320168 -0.0057685673
-0.61312127 0.26207364 -0.0082403421
-0.6079852 0.26266956 -0.0062233806
-0.6049363 0.26232916 -0.0066062212
-0.18656605 0.26224574 -0.0095030665
-0.17902285 0.26461652 -0.0097215772
-0.15625489 0.26169819 -0.0065959096
-0.1511693 0.26029831 -0.0070934892
-0.14691676 0.26287162 -0.006571725
-0.14055669 0.26314867 -0.0071639419
-0.13712573 0.26284608 -0.0066035092
-0.13242838 0.26297259 -0.0055856705
-0.12736423 0.26211748 -0.0083019333
-0.12224209 0.26147509 -0.0074344575
-0.11707679 0.26348758 -0.0065135956
-0.11280039 0.26145631 -0.0074048936
-0.10667797 0.2634539 -0.0081446366
-0.098585106 0.26301229 -0.0086331563
-0.091982901 0.26313925 -0.0085491836
-0.088382185 0.26293996 -0.0097028315
-0.083713144 0.26382577 -0.0089970231
-0.0773772 0.26402742 -0.0083139241
-0.071194351 0.26246095 -0.0092044473
-0.067707457 0.26357582 -0.0091464119
-0.063809931 0.26318151 -0.0098438263
-0.057017922 0.26453477 -0.0073746443
-0.052894697 0.26329094 -0.0080647469
-0.047091067 0.26294711 -0.0085254712
-0.042514399 0.2622183 -0.0070869923
-0.038297351 0.26216951 -0.0070917211
-0.032299858 0.26143345 -0.006842494
-0.027549304 0.26181674 -0.007062614
-0.022544429 0.26295543 -0.0069528818
-0.016771436 0.26352048 -0.005282402
-0.0082712965 0.2634632 -0.0099471612
-0.0024186373 0.26120874 -0.0092793107
0.0043891668 0.26077983 -0.0094414949
0.0094417036 0.26128 -0.0080282688
0.01343888 0.26114669 -0.00893116
0.016336858 0.26201048 -0.0090368986
0.020772278 0.26080707 -0.0099638104
0.0296942 0.26117852 -0.0095492005
0.034789979 0.26281321 -0.0090243816
0.035707891 0.26069373 -0.0090340972
0.040922225 0.2634581 -0.0093417764
0.088514596 0.26135522 -0.0057222247
0.092928685 0.2627067 -0.00706698
0.097354032 0.2622183 -0.0061026812
0.10271341 0.26296631 -0.0053685904
0.10690935 0.26312375 -0.0061156452
0.113051 0.26246643 -0.0078483699
0.1185516 0.26261854 -0.0066496334
0.12191449 0.26260212 -0.0060435534
0.12666392 0.26328489 -0.0066954889
0.13302413 0.26220632 -0.0068336525
0.1389595 0.26116049 -0.0077840886
0.1419908 0.26215121 -0.0073368945
0.14731124 0.26285398 -0.0076523968
0.15268454 0.26227212 -0.0074478686
0.15895991 0.26283386 -0.0065771141
0.16415682 0.26245132 -0.0078897178
0.1666563 0.26244655 -0.0071222186
0.17168567 0.26267195 -0.0068987012
0.17774585 0.26197991 -0.0070428131
0.18259747 0.26297945 -0.0082188724
0.18771741 0.26280561 -0.0084852576
0.19182613 0.26241651 -0.0067735435
0.19708624 0.26296961 -0.0084020495
0.20294663 0.26277706 -0.0079622744
0.20786911 0.2615715 -0.0076257437
0.21264003 0.2629756 -0.008685152
0.21815132 0.26231012 -0.0092081726
0.22275305 0.26266357 -0.0081093311
0.2265818 0.26277739 -0.0080390973
0.23199013 0.26212296 -0.0082062483
0.23948227 0.26114643 -0.0096486807
0.24261418 0.26303858 -0.0091497777
0.24520969 0.26410568 -0.0083354115
0.25105342 0.2623865 -0.009619236
0.25924021 0.26340589 -0.0090332925
0.26210737 0.26202029 -0.0086821914
0.26671585 0.26225942 -0.0087040905
0.27272779 0.2621142 -0.0089521054
0.27791628 0.26292637 -0.0077952929
-0.61274368 0.26779091 -0.0071407757
-0.6070165 0.26547781 -0.0079129338
-0.6030845 0.26781315 -0.0065432587
-0.18255776 0.26874477 -0.0065472722
-0.16017646 0.26934698 -0.0097103715
-0.15155357 0.26711643 -0.0057566762
-0.14824933 0.26803264 -0.0055355728
-0.14256711 0.26739725 -0.0074657998
-0.13629234 0.2689153 -0.0064774551
-0.13223523 0.26736104 -0.0068069994
-0.12576599 0.26839578 -0.008404891
-0.12352598 0.26777956 -0.0069543719
-0.11700984 0.26834989 -0.0079676388
-0.1080823 0.26781559 -0.0082949027
-0.098046213 0.2678178 -0.0093381107
-0.093025133 0.26676336 -0.008541787
-0.087691277 0.26780424 -0.0089546973
-0.08255969 0.26715273 -0.0086374823
-0.077707946 0.26813567 -0.0073574968
-0.071864069 0.26726675 -0.0081451237
-0.066627532 0.26846942 -0.0090933843
-0.063012756 0.26598218 -0.0082285805
-0.057737827 0.26765424 -0.0078034042
-0.051914293 0.26720595 -0.0066746473
-0.047580332 0.26790842 -0.0055719912
-0.042940892 0.26769102 -0.0059669837
-0.036560714 0.26784423 -0.0059996448
-0.027353466 0.26841381 -0.0060664616
-0.023385754 0.26578757 -0.006162127
-0.018972173 0.26606795 -0.0054637194
-0.011310726 0.26714128 -0.0095142722
-0.0083496571 0.26799947 -0.0095739365
0.007424891 0.26897597 -0.0095919967
0.014170885 0.26852056 -0.0098099709
0.033359606 0.26710072 -0.0095469756
0.045200765 0.26829869 -0.0096678734
0.06989488 0.26648605 -0.0096794963
0.09264712 0.26726505 -0.0059119165
0.097794384 0.26858383 -0.0052939653
0.10124998 0.2679089 -0.0055387318
0.10754821 0.26812822 -0.0066509545
0.11380826 0.26832238 -0.0077882409
0.11706546 0.26706159 -0.0069212317
0.1217085 0.26786286 -0.0073617548
0.12729038 0.26771981 -0.0074152448
0.13267669 0.26712573 -0.0059469193
0.13944671 0.26684397 -0.0071897507
0.14265159 0.2677218 -0.0067451894
0.1475613 0.26706672 -0.0069903955
0.15272209 0.26713741 -0.0062825829
0.15867953 0.26739722 -0.0067591867
0.16111362 0.26747486 -0.0058470666
0.16715261 0.26736692 -0.0074196011
0.17284177 0.26741761 -0.0073259077
0.17773286 0.26803362 -0.0081962701
0.18142582 0.26775235 -0.0075499713
0.18711287 0.26810548 -0.0077127367
0.19209704 0.26757646 -0.0074390769
0.19851457 0.2666375 -0.0091227097
0.201139 0.26647067 -0.0099868774
0.20757094 0.26664576 -0.0086348504
0.2120451 0.26767799 -0.0076588988
0.21660542 0.26733148 -0.0085786181
0.22139189 0.26765886 -0.0074506998
0.22742826 0.26700062 -0.0077345371
0.23239189 0.26664722 -0.0088060349
0.23697326 0.26902544 -0.0099646449
0.24125753 0.26785752 -0.008705169
0.24676844 0.26510316 -0.0099778771
0.25322837 0.26851439 -0.0095121861
0.2574423 0.26771653 -0.009084329
0.26196662 0.26622871 -0.0078378515
0.26904941 0.26806256 -0.0089960694
0.27461445 0.26789048 -0.0093897879
0.27696973 0.26729169 -0.0076335049
-0.6105327 0.27332163 -0.0063482523
-0.60932803 0.27314633 -0.0091955066
-0.60108554 0.27258074 -0.0077122897
-0.18216413 0.27213693 -0.005711019
-0.17823797 0.27139089 -0.0080557466
-0.17003006 0.27403578 -0.0090531111
-0.16756129 0.27304709 -0.0084982514
-0.16192639 0.27101851 -0.0095630288
-0.15697753 0.27282035 -0.0088019772
-0.15294693 0.27144581 -0.0071609318
-0.14690049 0.27258441 -0.0061513116
-0.14190868 0.27424368 -0.0080220997
-0.13865151 0.27273467 -0.0067453482
-0.13289548 0.27238643 -0.0072745024
-0.12848951 0.27290308 -0.0074067758
-0.12292747 0.27233911 -0.0081760138
-0.117607 0.27223259 -0.0087642968
-0.11116348 0.27333564 -0.008287698
-0.10685796 0.27291948 -0.0082692206
-0.10226589 0.27201486 -0.0076263812
-0.097376376 0.27298018 -0.0090586683
-0.092897102 0.27238634 -0.0082407948
-0.087210648 0.27218121 -0.0086949309
-0.08100038 0.27275285 -0.0081605911
-0.076492801 0.27260613 -0.0082410052
-0.072434761 0.27240154 -0.0079726251
-0.067783423 0.27318403 -0.0082904398
-0.062912859 0.27119479 -0.0065101185
-0.058377344 0.27189326 -0.0061388612
-0.054661453 0.27074528 -0.0071628094
-0.042578418 0.27272141 -0.0059781075
-0.037392229 0.27144521 -0.0064151287
-0.031484693 0.27179408 -0.0064435005
-0.027648807 0.27350551 -0.005821377
-0.023365736 0.27115533 -0.0058269501
-0.01287967 0.27153957 -0.0098885894
0.0058619976 0.27106494 -0.008782804
0.012465328 0.27170414 -0.0093939006
0.032169361 0.27231804 -0.0095758634
0.036810994 0.27295071 -0.0092982054
0.09302932 0.27407545 -0.005499959
0.097190768 0.27148157 -0.0062823147
0.10279495 0.27176988 -0.0068839192
0.10725486 0.27247518 -0.0064489245
0.11108293 0.27291685 -0.0066942871
0.11717893 0.2717011 -0.0082415342
0.12326032 0.27345696 -0.008631438
0.12807158 0.27213937 -0.0078223106
0.13288882 0.27220276 -0.0068616569
0.13772045 0.27303019 -0.0063710609
0.14302619 0.2728532 -0.0068701506
0.14829551 0.27217013 -0.007591784
0.15225419 0.27275097 -0.0074321507
0.15768901 0.27334115 -0.0067684054
0.16289788 0.27287179 -0.0065315813
0.16829655 0.27188766 -0.0077281296
0.17268653 0.27236485 -0.0070944629
0.17698158 0.27268314 -0.0093334615
0.18221779 0.27200088 -0.0078553557
0.18743639 0.27171403 -0.0075268866
0.19218943 0.27262375 -0.0082182884
0.19628544 0.27252236 -0.0086425142
0.20183769 0.27265632 -0.0084582716
0.20707369 0.27298015 -0.008427918
0.21333736 0.27286723 -0.0077878386
0.21742183 0.27129212 -0.008274138
0.22257154 0.27110636 -0.0088533955
0.2258848 0.27139223 -0.009265244
0.23765258 0.27266115 -0.0090783834
0.24387051 0.27351034 -0.0094326735
0.24967933 0.27330458 -0.0098345876
0.25395337 0.27055705 -0.0094764829
0.26721263 0.27283773 -0.0096561015
0.27077478 0.27319849 -0.0087656081
0.27743611 0.272425 -0.0077353874
-0.61157471 0.27751845 -0.0094909072
-0.60940206 0.27911812 -0.00825263
-0.60072422 0.27679688 -0.0081274211
-0.59791559 0.27703226 -0.0080601573
-0.18209118 0.27782583 -0.0061975121
-0.17744273 0.27737898 -0.0092813373
-0.17176007 0.27759555 -0.0090743899
-0.16912004 0.27640167 -0.0079426467
-0.16345143 0.27756298 -0.0078305304
-0.15266016 0.27730456 -0.0085505005
-0.14752352 0.27845517 -0.0066727847
-0.14336516 0.27742001 -0.0057975254
-0.13749695 0.27643755 -0.0063961805
-0.13247244 0.2773678 -0.0065354775
-0.12709278 0.27761421 -0.006508986
-0.12213389 0.27709517 -0.0065357834
-0.11642545 0.27806404 -0.0081438683
-0.11303203 0.27682948 -0.0074845813
-0.10735457 0.27727696 -0.0070416615
-0.10137836 0.27828616 -0.0081291422
-0.098036207 0.27717429 -0.0074211406
-0.091936328 0.2775532 -0.0075972797
-0.087675497 0.27792788 -0.006576106
-0.082898937 0.27744639 -0.0082550198
-0.077889509 0.27780735 -0.0079421345
-0.071891069 0.2777485 -0.007874921
-0.067457229 0.27637261 -0.0082103908
-0.052994251 0.27529997 -0.0051089525
-0.046471626 0.27746165 -0.0052863657
-0.03246741 0.27681258 -0.0061372519
-0.02774851 0.27623233 -0.0061911047
-0.020046145 0.27536899 -0.0050667524
0.084598362 0.27888048 -0.005923748
0.094925493 0.27542514 -0.0069576502
0.097518362 0.27775371 -0.006321907
0.10228827 0.27690721 -0.0058581829
0.10736536 0.27797371 -0.0062309206
0.11253229 0.27782527 -0.007523159
0.11800817 0.27697253 -0.0070207417
0.12206994 0.27863902 -0.0070796013
0.12699901 0.27766562 -0.0073375404
0.13290817 0.27762458 -0.0067809224
0.13805307 0.27671221 -0.0089087682
0.14242718 0.27693653 -0.0081879199
0.14821358 0.27716574 -0.0068751969
0.15296432 0.27700379 -0.0090329647
0.15713483 0.27831283 -0.0095681846
0.16290471 0.27701563 -0.0090276245
0.16778481 0.27760392 -0.0074264258
0.17224209 0.2775659 -0.0071189203
0.17806529 0.27782467 -0.0089760823
0.1826431 0.27939227 -0.0072867274
0.18619615 0.27752969 -0.0089587867
0.19165412 0.27802962 -0.0088517517
0.1972464 0.27733678 -0.0083237411
0.2023851 0.2778976 -0.0081407875
0.20796955 0.27720299 -0.0085941358
0.21171665 0.27748957 -0.0081955791
0.21649557 0.27697706 -0.0077364938
0.22236411 0.27754438 -0.009278357
0.22798024 0.27836904 -0.0099093122
0.23397478 0.27906644 -0.0086265802
0.23814088 0.27735883 -0.0093199462
0.2437849 0.27742729 -0.0092692971
0.24803135 0.27779293 -0.0091411918
0.25188121 0.27862942 -0.0079458952
0.25685328 0.27872765 -0.0093337297
0.26221436 0.27744344 -0.0098092156
0.26814675 0.27682227 -0.0095447898
0.27288938 0.27778283 -0.0093892813
0.27795961 0.27816612 -0.0075982404
-0.60869581 0.28362486 -0.0075124204
-0.60103703 0.28188756 -0.0074669123
-0.17828411 0.28142244 -0.0080208182
-0.17131221 0.284695 -0.0086075664
-0.16762435 0.28303024 -0.0084978938
-0.16180895 0.28303683 -0.0077339611
-0.15830426 0.28183058 -0.0072462163
-0.15112203 0.28303057 -0.0072908103
-0.14849474 0.28224176 -0.0086678714
-0.14215265 0.28201124 -0.0064090551
-0.1371733 0.28219318 -0.0070057213
-0.13309546 0.28281772 -0.0066913962
-0.1262781 0.28184289 -0.0071619689
-0.12323975 0.2824285 -0.0069563212
-0.11709005 0.28286621 -0.0085145701
-0.11314446 0.28183222 -0.0076416205
-0.10745459 0.28257778 -0.0080911713
-0.102125 0.28267726 -0.0074695698
-0.098659694 0.28201443 -0.0070683956
-0.093456209 0.28285432 -0.0069154799
-0.087495051 0.28183976 -0.0069077723
-0.082457542 0.28233197 -0.0074710581
-0.078272566 0.28247434 -0.0070607141
-0.073472396 0.28307241 -0.0064564468
-0.068077266 0.28356013 -0.0060334206
-0.060749948 0.28361726 -0.0051788688
-0.043309689 0.28279036 -0.0052047968
-0.031014085 0.28242964 -0.0096506476
0.077560484 0.28023958 -0.0055434108
0.084881335 0.28169239 -0.0051394701
0.08625105 0.28353691 -0.0058423877
0.097559981 0.28218234 -0.0070863962
0.10220886 0.28213853 -0.007395789
0.10704593 0.2830714 -0.0068879277
0.113358 0.28211755 -0.0066984892
0.11838584 0.28219962 -0.0071700215
0.12188131 0.28273082 -0.00642998
0.12730473 0.28217417 -0.0076794922
0.13251513 0.28289446 -0.0085110366
0.13813411 0.28216434 -0.0085910559
0.14153302 0.28185096 -0.0069800615
0.14683394 0.28143999 -0.0081971288
0.15251741 0.28241923 -0.0099288821
0.15682593 0.2833699 -0.008910507
0.16202566 0.28253531 -0.0090911193
0.16751067 0.28280494 -0.0085623758
0.17270061 0.28253445 -0.0073502362
0.17878406 0.28217205 -0.0082277553
0.18113458 0.28244308 -0.0066068969
0.1872694 0.28345382 -0.0081396801
0.1932621 0.28313717 -0.0088234544
0.19848827 0.28292739 -0.0084891021
0.2036586 0.28173122 -0.0085927248
0.20828128 0.28236502 -0.0087805539
0.21226619 0.28149325 -0.0095272064
0.2183882 0.28426975 -0.0084989667
0.22186594 0.28247881 -0.0085449694
0.22787744 0.28206453 -0.0092524691
0.23273699 0.2822656 -0.0092306435
0.23746519 0.28273043 -0.0080146389
0.24240942 0.28232041 -0.0087944716
0.24657151 0.28319949 -0.0092159212
0.25357968 0.28276989 -0.008257647
0.25692779 0.28131801 -0.0074229538
0.27721161 0.28298199 -0.0076609752
-0.60645407 0.28730425 -0.0074344128
-0.60072225 0.28798461 -0.007600069
-0.59898418 0.28825593 -0.0083726645
-0.18015116 0.2874347 -0.0073522329
-0.17747521 0.2877349 -0.0078305602
-0.17216584 0.28712103 -0.0079459995
-0.16703492 0.28802872 -0.0072939992
-0.16295339 0.28733262 -0.0078206658
-0.15659247 0.28863075 -0.007609129
-0.15352541 0.28626052 -0.0068388283
-0.14785767 0.28828809 -0.0071664453
-0.1426698 0.28702354 -0.0072684288
-0.13715 0.28644919 -0.0062387981
-0.13266724 0.28726956 -0.0059245974
-0.12724376 0.28642115 -0.0061344393
-0.12282124 0.28805304 -0.0058175921
-0.11740417 0.28724211 -0.0067018569
-0.11114144 0.28752047 -0.0072156982
-0.10663716 0.28754756 -0.0066620111
-0.10352474 0.28707346 -0.0065881908
-0.097206712 0.28740281 -0.0076978281
-0.092810564 0.28737992 -0.0069568753
-0.088141248 0.28781441 -0.0073087635
-0.081611514 0.28811231 -0.0085595446
-0.077691942 0.2873784 -0.0071612266
-0.072976895 0.28739825 -0.0077912807
-0.067866467 0.28571287 -0.0055595436
-0.062947839 0.2861712 -0.0053552389
0.087116405 0.28713188 -0.0051034689
0.093220174 0.28986382 -0.0052750111
0.098007709 0.2886053 -0.0062876143
0.10420889 0.28615153 -0.0088464618
0.10725825 0.28731388 -0.0079444172
0.11197382 0.28762272 -0.0064030886
0.11702748 0.28733307 -0.0064142495
0.12237775 0.28785747 -0.0068568205
0.12806766 0.28700164 -0.0083948374
0.13234271 0.2877042 -0.0078917937
0.13693869 0.28788391 -0.0071842521
0.14219472 0.28721485 -0.00826554
0.14565833 0.28676456 -0.0095692575
0.15295143 0.28715494 -0.007771492
0.15685561 0.28839558 -0.0079637226
0.16265821 0.28722951 -0.0084304959
0.16804399 0.28847253 -0.0085931271
0.1725547 0.28788015 -0.0076391697
0.17730826 0.28745663 -0.0078651011
0.18174332 0.28768107 -0.007515321
0.18819325 0.28731376 -0.007980396
0.19242735 0.28789809 -0.0083951177
0.1974628 0.28739491 -0.0089369565
0.20226708 0.28782755 -0.0075563667
0.20658557 0.28720108 -0.007222394
0.21130544 0.28738704 -0.0093189776
0.21913689 0.28637928 -0.0084620714
0.22253771 0.28655168 -0.008991152
0.22667432 0.2888093 -0.0094873905
0.23224156 0.28755626 -0.0097981887
0.23973489 0.28517193 -0.0095070601
0.24207555 0.28644004 -0.0080833035
0.24894655 0.28952134 -0.0083267093
0.25404567 0.28560674 -0.0096197128
0.25783098 0.28802222 -0.0097876191
0.26087713 0.28837991 -0.0099987388
0.26750106 0.28762227 -0.0070397556
0.27109569 0.28783602 -0.0092689395
0.27691615 0.28716525 -0.0079371184
-0.61070794 0.2943013 -0.0058051944
-0.60862255 0.29255152 -0.0076345471
-0.60389107 0.29223189 -0.0051342845
-0.59722728 0.2927734 -0.0085825427
-0.17758426 0.29204947 -0.0073203146
-0.17244995 0.29097354 -0.0086931884
-0.16602148 0.29214263 -0.0086461501
-0.15835199 0.29238772 -0.0083531886
-0.15186627 0.29373381 -0.007977088
-0.14899057 0.29123849 -0.0072597065
-0.14288799 0.29243806 -0.0065222583
-0.136705 0.29264158 -0.0063034692
-0.13190381 0.29356441 -0.005456537
-0.12744865 0.29218036 -0.0063078105
-0.12467873 0.29381609 -0.0056294799
-0.11783409 0.29331562 -0.0058191521
-0.11390489 0.29220578 -0.0057680011
-0.10736097 0.2924282 -0.0063979542
-0.10242892 0.29260871 -0.0065498152
-0.097325027 0.29183164 -0.0075752935
-0.09146589 0.29267573 -0.0077045262
-0.088022947 0.29295099 -0.0064172596
-0.082605079 0.29243788 -0.0088452399
-0.07711786 0.29272598 -0.0083879754
-0.073626041 0.29224649 -0.0089004636
0.095985472 0.29189968 -0.0053505301
0.10253725 0.29287842 -0.0081338687
0.10803296 0.2922149 -0.0086705387
0.11198244 0.29293588 -0.0070233941
0.11770629 0.29289198 -0.0082971258
0.12307394 0.29217333 -0.0078522321
0.12730737 0.29266414 -0.007730166
0.132074 0.29269338 -0.0086293966
0.13841459 0.292276 -0.0087917447
0.14127415 0.29366487 -0.0091825128
0.14674251 0.2917363 -0.008718133
0.15228927 0.29224318 -0.0080954377
0.15821305 0.29273844 -0.0083722919
0.16270302 0.29281354 -0.0091829496
0.16811043 0.29314026 -0.0085127503
0.17210333 0.29302752 -0.0066893897
0.17763209 0.29276282 -0.0090844277
0.18263412 0.29236436 -0.0076285675
0.18745205 0.29243535 -0.0094192773
0.19302182 0.29292718 -0.0084606307
0.19712608 0.29171565 -0.0084298551
0.20190772 0.29256177 -0.0083208084
0.20708533 0.29078758 -0.0087014036
0.21247061 0.29175919 -0.0073852241
0.2173163 0.29228842 -0.0086627901
0.22197439 0.29348877 -0.0087419152
0.22714765 0.29278031 -0.0082004666
0.23263852 0.29265782 -0.0091161327
0.23732539 0.29305783 -0.0083635002
0.24071816 0.29459834 -0.0099932551
0.24777682 0.29112348 -0.0097613037
0.2512261 0.29252523 -0.0099268155
0.25695658 0.29380822 -0.0094764233
0.26136714 0.29228792 -0.0086800754
0.26713261 0.29185817 -0.0092783375
0.27289218 0.29289758 -0.009180516
0.27665389 0.29235989 -0.0083578378
-0.62229198 0.2989403 -0.0084085464
-0.61648124 0.29907352 -0.0081906915
-0.61359668 0.29669014 -0.0069973767
-0.60712409 0.29775992 -0.0070637763
-0.59807724 0.29837683 -0.0081541212
-0.17502004 0.29663906 -0.0073035359
-0.17243662 0.29768085 -0.0074102283
-0.16704345 0.2974962 -0.0087854266
-0.16104916 0.29874939 -0.0090907812
-0.15763155 0.2979669 -0.0067228749
-0.15200442 0.29732743 -0.0064474046
-0.1489208 0.29788581 -0.0060364008
-0.14294696 0.29864287 -0.005644192
-0.13967746 0.29611978 -0.0065168142
-0.13314374 0.29798433 -0.0063702166
-0.12995613 0.29765922 -0.005761683
-0.12362258 0.2980023 -0.0066818921
-0.11784753 0.29725963 -0.005767554
-0.11228561 0.29814735 -0.0060868957
-0.10255112 0.29839507 -0.0063253045
-0.098911285 0.29627946 -0.0066456199
-0.092393935 0.2975975 -0.0083957314
-0.085622698 0.29659837 -0.0094266534
-0.08342322 0.29765847 -0.0070737801
-0.077982202 0.29747283 -0.0085189939
0.1047014 0.29697961 -0.0088027716
0.10604534 0.29876965 -0.0095121264
0.11335402 0.2973088 -0.0086334348
0.11710739 0.29826272 -0.0067462921
0.12150145 0.29691577 -0.0067907372
0.1263531 0.29665011 -0.0087624984
0.13337232 0.29792529 -0.0075764777
0.13939825 0.29756337 -0.0091833472
0.14170863 0.2979503 -0.0091306372
0.1483058 0.29791492 -0.0074938834
0.15222725 0.29778063 -0.0079917535
0.15672116 0.29747966 -0.0092894435
0.16220275 0.29837647 -0.0084604425
0.16729341 0.2981309 -0.0079810424
0.17290589 0.29617181 -0.0075268447
0.17788365 0.29777172 -0.008336735
0.1830423 0.29775217 -0.0086088581
0.18725809 0.29813823 -0.0085122883
0.1926274 0.2978825 -0.0091362596
0.19769415 0.29754287 -0.0079861162
0.20295288 0.29681996 -0.0081854984
0.20599094 0.2974582 -0.0092696548
0.21375778 0.29908109 -0.005166471
0.21681578 0.2973128 -0.0070969909
0.22211798 0.29718027 -0.0080724601
0.22890678 0.29509932 -0.0093774796
0.23406762 0.29752842 -0.0070464015
0.23750429 0.29792437 -0.0091764927
0.24182343 0.29771248 -0.0099388361
0.24681433 0.29796329 -0.005736629
0.25237104 0.2989091 -0.0072293747
0.25839901 0.29837567 -0.005236268
0.2635099 0.29692101 -0.0092937751
0.2688722 0.29703832 -0.0090482831
0.27321512 0.29621351 -0.0098411143
0.27716145 0.297144 -0.0079406705
-0.61821592 0.30171934 -0.0068795383
-0.61087054 0.30098885 -0.0070700049
-0.60652179 0.30366382 -0.0077910619
-0.60103732 0.30372435 -0.008280158
-0.59719682 0.30256769 -0.006962508
-0.17708141 0.30132562 -0.0056166649
-0.1720342 0.304106 -0.007953763
-0.16801207 0.30258954 -0.0082263499
-0.16327846 0.30136567 -0.0092465281
-0.15888968 0.30352685 -0.0073070228
-0.15191387 0.30224016 -0.0059224218
-0.1482833 0.30223152 -0.0065568686
-0.1435851 0.30261356 -0.0064232745
-0.13613319 0.30346942 -0.0062366026
-0.13225712 0.30216223 -0.0063332319
-0.12608455 0.30219039 -0.0076284208
-0.1230187 0.30332094 -0.006221287
-0.11862946 0.3014994 -0.0066956547
-0.11223003 0.30285597 -0.0069804392
-0.10892067 0.30130383 -0.0064100623
-0.10260563 0.30280054 -0.0076033473
-0.095747352 0.30293304 -0.0091651082
-0.093211152 0.3019419 -0.008865972
-0.089420319 0.30454382 -0.0090113282
-0.084095299 0.30196777 -0.0097199082
-0.078510508 0.30223691 -0.0073640496
0.085869491 0.30365026 -0.0051344037
0.097881064 0.30200046 -0.0052586794
0.10009888 0.30348921 -0.0051480532
0.10700503 0.30247185 -0.0090771317
0.11228791 0.30263492 -0.0084657473
0.11724313 0.30220613 -0.007079035
0.12213799 0.30268472 -0.006860435
0.12755902 0.30267128 -0.0071652955
0.13317344 0.30210814 -0.0073607364
0.13605273 0.30232701 -0.0063894889
0.14283493 0.30255088 -0.0077950833
0.14787565 0.30280149 -0.0083419289
0.15215543 0.30218503 -0.008564502
0.15763079 0.30299294 -0.0085707605
0.16327576 0.30295515 -0.0086277816
0.16519389 0.30357283 -0.0072026849
0.17248105 0.30357862 -0.0091070235
0.1772666 0.30263358 -0.0083126277
0.18250273 0.30264342 -0.0082991477
0.18787333 0.30290827 -0.0090015233
0.19278283 0.30212724 -0.0096642077
0.19709384 0.30201972 -0.0093487948
0.2026169 0.3022787 -0.0094534308
0.20870897 0.30330926 -0.0099645853
0.21173586 0.30134541 -0.0054253042
0.21844982 0.30124658 -0.0071875453
0.22199622 0.30171824 -0.0070199817
0.23376665 0.30465049 -0.0053966045
0.23769434 0.30127272 -0.0090668006
0.24162862 0.30329871 -0.0080500068
0.24868242 0.30121654 -0.0077385507
0.25241244 0.30189097 -0.0082740588
0.26445642 0.3045797 -0.0052144527
0.26568148 0.30216771 -0.0082893968
0.27015719 0.30478099 -0.0050079226
0.2768907 0.30254948 -0.0079357624
-0.61677736 0.30872434 -0.0090942383
-0.61273843 0.3072384 -0.0072939396
-0.60720682 0.30847612 -0.0076432526
-0.60084218 0.30756181 -0.0071132979
-0.59782892 0.30711001 -0.0078607798
-0.17695385 0.30685169 -0.0061693788
-0.17288736 0.3067033 -0.0065820664
-0.16826886 0.30834007 -0.0069825053
-0.16258693 0.30729884 -0.0071691722
-0.15707873 0.30775917 -0.0065973997
-0.15351166 0.30767804 -0.0056396946
-0.14664033 0.30833614 -0.0065882606
-0.14230305 0.30668172 -0.0062688389
-0.13671997 0.307749 -0.0063991398
-0.13282418 0.30721307 -0.0060950592
-0.12726447 0.30748671 -0.0064420463
-0.12218673 0.30783239 -0.0067012045
-0.1162388 0.30731389 -0.0057661831
-0.11271326 0.30807209 -0.0070340037
-0.10725823 0.30660608 -0.0082477927
-0.10232879 0.30782947 -0.0081131309
-0.096579015 0.30771321 -0.0095006526
-0.092492305 0.30728731 -0.0082654357
-0.087719262 0.3076002 -0.008428256
-0.080268979 0.30921525 -0.0095855594
-0.078076065 0.30734134 -0.0091925859
0.088636592 0.30832052 -0.0054568648
0.09263058 0.3070823 -0.0053431094
0.097151846 0.3068223 -0.0053953975
0.10244783 0.30743745 -0.0060640774
0.1083747 0.30732915 -0.0086219609
0.11291426 0.30596802 -0.0084302723
0.11736461 0.30787128 -0.0076271892
0.12290166 0.30831844 -0.0058191121
0.12851264 0.30814287 -0.0074779489
0.13249928 0.30695075 -0.0072238185
0.13769522 0.30793649 -0.0074788728
0.14326474 0.30808714 -0.0083404779
0.1472872 0.30702034 -0.0079381866
0.15194079 0.30782786 -0.0090914173
0.15741447 0.30814475 -0.0083627254
0.16310503 0.30774826 -0.0084280865
0.16639604 0.30694398 -0.0084606558
0.173324 0.3071683 -0.0074833035
0.17678551 0.3079901 -0.0078009246
0.18218365 0.30766132 -0.0077976943
0.18545847 0.30835176 -0.0073845387
0.19168699 0.30614313 -0.0090416865
0.19721276 0.30582172 -0.0096493363
0.20249254 0.30756614 -0.0097078383
0.20844813 0.30727974 -0.0090724425
0.22205389 0.30809626 -0.0054446459
0.22822616 0.30844736 -0.0096927285
0.23341124 0.30763802 -0.0081252456
0.23766738 0.30764294 -0.0076947212
0.24344461 0.30681658 -0.0089065628
0.24797927 0.30767578 -0.0085821915
0.25152725 0.30770725 -0.0074625714
0.25587752 0.30710295 -0.0051923394
0.2630356 0.30593687 -0.0050948262
0.26763439 0.30745512 -0.0081394017
0.2733621 0.30815846 -0.0072678626
0.27627155 0.30810201 -0.0062703174
-0.61713189 0.3134836 -0.0078317523
-0.6125254 0.31212586 -0.0070169093
-0.60556978 0.31370819 -0.007445991
-0.60440576 0.31195158 -0.0074200928
-0.59724087 0.31213728 -0.0077295699
-0.17581409 0.3104187 -0.0061308146
-0.17150302 0.31307244 -0.007024318
-0.16716191 0.31228888 -0.0055169612
-0.16351449 0.31063434 -0.0054197907
-0.15594216 0.31357852 -0.006036669
-0.15298873 0.31170961 -0.0074824095
-0.14659123 0.31330848 -0.0065257847
-0.14390546 0.31227174 -0.0057691261
-0.13783789 0.31195557 -0.0066577196
-0.13148911 0.31232464 -0.0069912411
-0.12788218 0.31209317 -0.0061478815
-0.12216028 0.31283841 -0.0063802898
-0.11777297 0.31200823 -0.0067400038
-0.11359247 0.31244978 -0.0074319444
-0.10345259 0.31264338 -0.0076580844
-0.097602472 0.31268379 -0.0078734308
-0.091978632 0.31314519 -0.0089503722
-0.089920878 0.31213665 -0.008154273
-0.082434416 0.31258455 -0.0088071227
-0.078727327 0.31235442 -0.0075775781
0.063438013 0.31344914 -0.0054757297
0.06599158 0.31422728 -0.0051281452
0.077213019 0.31390017 -0.0052020848
0.081538409 0.31256482 -0.0056660771
0.087123208 0.31206155 -0.005813852
0.092487834 0.31240851 -0.006105125
0.096167088 0.31147534 -0.0053542852
0.10308705 0.31374678 -0.0055177608
0.1109376 0.31255361 -0.0092713041
0.11764803 0.31261933 -0.0089909881
0.12255507 0.31211141 -0.0071699223
0.12709357 0.31285998 -0.0066512097
