# .PCD v0.7 - Point Cloud Data file format
VERSION 0.7
FIELDS x y z
SIZE 4 4 4
TYPE F F F
COUNT 1 1 1
WIDTH 1383
HEIGHT 1
VIEWPOINT 0 0 0 1 0 0 0
POINTS 1383
DATA ascii
1.0761672 -0.26538005 0.028131604
1.0813313 -0.26290977 0.026839733
1.0930055 -0.26650634 0.027046898
1.1019597 -0.26510662 0.028000742
1.112659 -0.26515502 0.028517038
1.1202484 -0.2636584 0.027329922
1.1326075 -0.26680315 0.029048681
1.1560748 -0.26498854 0.028212786
1.1744943 -0.26561898 0.02760309
1.1943986 -0.26534048 0.026925016
1.2072964 -0.26977551 0.026995718
1.2121235 -0.26466709 0.028221995
1.2227613 -0.26424944 0.028244585
1.2318161 -0.2655291 0.027838945
1.2411237 -0.26444775 0.027129531
1.2548234 -0.26527455 0.028529724
1.2673268 -0.26551622 0.029289186
1.3070993 -0.26599756 0.020722657
1.3762515 -0.26881111 0.028329611
1.3857251 -0.26233357 0.028748512
1.4045463 -0.26181811 0.026779592
-0.49049464 -0.25372174 0.024202624
-0.48434073 -0.25578135 0.025149679
-0.4749698 -0.25541574 0.023905326
-0.46525422 -0.25531435 0.024570325
-0.45434389 -0.25552428 0.022718459
-0.44539133 -0.25397477 0.020798406
-0.43465978 -0.2544412 0.020448223
-0.42307177 -0.2551038 0.021221926
-0.41040307 -0.25571859 0.020600289
-0.40746385 -0.2502237 0.020194232
-0.050310262 -0.25411072 0.021509901
-0.045092989 -0.255016 0.021233737
-0.034305088 -0.25529084 0.023121461
-0.025101723 -0.25463268 0.021302044
-0.015333822 -0.25480086 0.021192292
-0.004508432 -0.25441509 0.022240011
0.0051657604 -0.25515372 0.022382317
0.015290262 -0.25573918 0.021782197
0.024739906 -0.25696588 0.023211844
0.034918759 -0.2545414 0.023433536
0.045115322 -0.2555584 0.022319118
0.054074302 -0.25596341 0.025581479
0.06494201 -0.25607926 0.024988316
0.07403855 -0.25316858 0.025279203
0.086127475 -0.25417107 0.026947901
0.096391417 -0.25654849 0.023669112
0.10409876 -0.25410852 0.025737362
0.11498542 -0.25334567 0.027401865
0.12514453 -0.25635102 0.026038826
0.13422932 -0.25560421 0.026075432
0.145483 -0.2552442 0.024467209
0.15426874 -0.25541908 0.02444418
0.1650119 -0.25574827 0.025070162
0.17542918 -0.25489232 0.024197746
0.18545873 -0.25526151 0.024806878
0.19469367 -0.25643128 0.024814
0.20513509 -0.25457636 0.02483663
0.216077 -0.25495684 0.023864664
0.22487882 -0.25595358 0.023451846
0.23394844 -0.25515014 0.026359325
0.24533474 -0.25384685 0.02761915
0.25537464 -0.2553989 0.027828049
0.26476821 -0.25478199 0.027663955
0.27530187 -0.25412035 0.025989251
0.28507552 -0.25518984 0.025725732
0.29492927 -0.25447974 0.023894787
0.30367866 -0.25588503 0.021401107
0.70900679 -0.25064266 0.020312786
0.71980071 -0.25477707 0.020559043
0.72476959 -0.25752807 0.020355344
0.73155642 -0.25757834 0.021374583
0.74100459 -0.25775093 0.020291686
0.7559405 -0.25436303 0.020971119
0.76579094 -0.25519854 0.021243298
0.77500993 -0.25463527 0.022153735
0.78380907 -0.25454167 0.021720394
0.79315722 -0.25522226 0.022861529
0.80517858 -0.25513503 0.023540327
0.81639832 -0.25323242 0.024116606
0.82446623 -0.25593099 0.024657562
0.83261657 -0.25328326 0.025028393
0.84534371 -0.25419432 0.026109051
0.89603001 -0.25177416 0.020609161
0.90713048 -0.25645897 0.021675289
0.93847746 -0.2558701 0.020738959
0.94559574 -0.25403643 0.021444166
0.95951933 -0.25717819 0.023079515
0.96401876 -0.25467226 0.021678224
0.97815174 -0.25700283 0.023791254
0.98290068 -0.2545833 0.022495136
0.99374646 -0.25507873 0.022571823
1.0023035 -0.25446466 0.022356847
1.015242 -0.25607669 0.024620175
1.0248926 -0.25491494 0.02582787
1.0392425 -0.25814915 0.027881265
1.0464875 -0.25531745 0.027935347
1.063693 -0.25531724 0.028123021
1.0757676 -0.25360793 0.026966274
1.0839382 -0.25483066 0.026632687
1.0945724 -0.25488982 0.027198911
1.1032456 -0.25630867 0.027067423
1.1138642 -0.25391722 0.027132094
1.1265025 -0.25716537 0.02903676
1.1379347 -0.25029337 0.028625488
1.1438026 -0.25265074 0.027269483
1.1546631 -0.25475639 0.025870949
1.1609919 -0.25033557 0.025728822
1.1739225 -0.25591299 0.027940789
1.1842767 -0.25548053 0.027977487
1.1946675 -0.25502118 0.027991176
1.2051787 -0.25700545 0.028423578
1.2161715 -0.25431114 0.028258184
1.2237408 -0.25562781 0.025777459
1.2343407 -0.25440794 0.027104944
1.2432741 -0.25558117 0.026604235
1.3443584 -0.25130767 0.026761472
1.3571279 -0.25377834 0.027655631
1.3843712 -0.25493684 0.026349584
1.3928537 -0.25467324 0.023504019
-0.48468018 -0.24498467 0.02495045
-0.47608551 -0.24563165 0.026901215
-0.46549597 -0.24471234 0.024241172
-0.45458654 -0.24535881 0.022099247
-0.44590765 -0.24753654 0.020891428
-0.42244014 -0.24711289 0.021563789
-0.41754657 -0.24545796 0.020198077
-0.4032461 -0.24060148 0.020102948
-0.39553419 -0.24548779 0.021151857
-0.38628104 -0.24290757 0.020721793
-0.37884402 -0.24088115 0.020359278
-0.051798739 -0.243659 0.020259306
-0.045348544 -0.24539961 0.021467136
-0.034401238 -0.24563299 0.021162907
-0.023773184 -0.24784832 0.021310955
-0.015092774 -0.24464935 0.020975471
-0.004445029 -0.24435458 0.02102734
0.0045006848 -0.24627475 0.021968568
0.015611837 -0.2470026 0.021626795
0.024698377 -0.24552806 0.022770839
0.034541491 -0.24357319 0.022106213
0.043929864 -0.244866 0.022472769
0.055843331 -0.24711168 0.024597418
0.064130545 -0.24492578 0.024634281
0.075337075 -0.24400572 0.024073744
0.08473143 -0.24529187 0.02576218
0.095128484 -0.24563864 0.025170114
0.10444565 -0.24373117 0.02599008
0.11568826 -0.24503021 0.026793659
0.12498931 -0.24590755 0.026856074
0.1354813 -0.24421191 0.026405074
0.14543582 -0.24518509 0.02362752
0.15504833 -0.24568796 0.023828071
0.16483498 -0.24452667 0.024222298
0.17521925 -0.24505548 0.02490112
0.18462276 -0.24513708 0.023670277
0.19531451 -0.2451783 0.024418212
0.2045681 -0.24467789 0.025134873
0.21477084 -0.24503891 0.024071757
0.22518189 -0.24604611 0.025496643
0.23498501 -0.24299197 0.027371883
0.24486539 -0.24503927 0.027807225
0.2553786 -0.24590869 0.02706393
0.26515439 -0.24370864 0.027716551
0.27427742 -0.24519005 0.026371205
0.28535518 -0.24542888 0.025658825
0.29509243 -0.24548735 0.022601655
0.30072039 -0.24121934 0.020186901
0.70934767 -0.24402796 0.020307958
0.71437573 -0.24508972 0.020125091
0.72014362 -0.24812421 0.020554215
0.74577975 -0.24432553 0.020249099
0.75747687 -0.24564098 0.02276209
0.7640506 -0.24439625 0.02240853
0.77496833 -0.24555409 0.02178446
0.7832008 -0.24490577 0.021947116
0.79377741 -0.24567354 0.023348153
0.80656046 -0.24499817 0.02412965
0.81634814 -0.24362677 0.024751524
0.82493991 -0.24473794 0.024985552
0.83359462 -0.24354927 0.024327537
0.84368134 -0.24512377 0.025487911
0.856143 -0.24514157 0.027301708
0.89529413 -0.24570471 0.020446083
0.90787083 -0.24803385 0.020441353
0.91302735 -0.24617594 0.020642608
0.92401344 -0.24690193 0.020117819
0.93233687 -0.24642324 0.020059049
0.94403952 -0.24327186 0.021169007
0.95101255 -0.24868125 0.021471322
0.96208906 -0.2450726 0.02210466
0.97225899 -0.24540253 0.022980908
0.98418558 -0.24548849 0.022936285
0.99468148 -0.24448311 0.023210406
1.0044183 -0.2452751 0.024544239
1.0142558 -0.24464026 0.026347756
1.0250634 -0.24504688 0.027345479
1.030893 -0.24521291 0.025880257
1.0427465 -0.24595156 0.026285306
1.0515651 -0.24305719 0.026719451
1.0648619 -0.24571998 0.027405595
1.0763751 -0.24396126 0.026994407
1.0854106 -0.24387771 0.025401175
1.0965034 -0.24410278 0.026211917
1.1049768 -0.24773547 0.026375711
1.113447 -0.24234125 0.029304504
1.1253194 -0.24497321 0.028599709
1.1372119 -0.24284634 0.027034998
1.1471673 -0.24707687 0.027823716
1.1556798 -0.24360703 0.028094849
1.1647705 -0.24581361 0.028095642
1.1771457 -0.24538141 0.027594239
1.1869884 -0.24707675 0.027762055
1.1911056 -0.24410629 0.029059112
1.2261882 -0.24869347 0.027169883
1.236184 -0.24673462 0.027080337
1.2433966 -0.24159455 0.022955298
1.2513471 -0.24928522 0.028976321
1.2989202 -0.24370944 0.029855072
1.3359354 -0.24556604 0.027050436
1.3448358 -0.24646306 0.026206195
1.3501163 -0.24356008 0.02785635
1.3619437 -0.24559808 0.028304815
1.374557 -0.24782902 0.026771992
-0.48361716 -0.23474678 0.025601983
-0.47442698 -0.23474157 0.025002917
-0.4658874 -0.23632264 0.024196466
-0.4549959 -0.23603328 0.021100683
-0.44854712 -0.23205116 0.020378321
-0.42248076 -0.23928428 0.020434022
-0.41574362 -0.23554735 0.021221681
-0.39602387 -0.23952651 0.021416709
-0.38947451 -0.23721951 0.021288812
-0.37358141 -0.23902732 0.020256579
-0.064337701 -0.23128569 0.020190835
-0.029194325 -0.23673499 0.020659685
-0.014523738 -0.23700374 0.020809174
-0.0070099048 -0.23538966 0.020781338
0.0067017116 -0.23683077 0.021295384
0.01751807 -0.23744255 0.021794572
0.024783546 -0.23581834 0.02243782
0.034766223 -0.23388082 0.022559948
0.045131691 -0.23578511 0.02254848
0.054706093 -0.23645344 0.023641735
0.06500683 -0.23494403 0.022678494
0.075328812 -0.23545136 0.024179986
0.085962199 -0.23616943 0.024544608
0.09540049 -0.23431768 0.024071326
0.10500459 -0.23354828 0.024294805
0.11400243 -0.23511577 0.025301794
0.12541826 -0.23574169 0.025495797
0.13425003 -0.2327662 0.025433907
0.14540762 -0.23524977 0.02383516
0.1559761 -0.23580524 0.023038443
0.16570085 -0.2345399 0.023319971
0.17502797 -0.23485118 0.022631999
0.18438098 -0.23574901 0.023725681
0.19445774 -0.23453546 0.023987144
0.20445135 -0.23517072 0.023726547
0.2146969 -0.23575228 0.025125533
0.22422431 -0.23517507 0.026149295
0.23464985 -0.2333506 0.02665776
0.24551956 -0.23605591 0.027359406
0.25428721 -0.23536114 0.026346365
0.26423621 -0.23311394 0.026454628
0.27574554 -0.2363929 0.02486093
0.28454754 -0.23427331 0.025039533
0.29255241 -0.23770902 0.021564722
0.69935191 -0.23352748 0.020323575
0.71066785 -0.23440643 0.020925343
0.73121536 -0.23187415 0.020121038
0.74548388 -0.23422024 0.020248389
0.75675935 -0.23435484 0.02282224
0.76497763 -0.23637985 0.021906843
0.77473599 -0.2344072 0.021605402
0.7837323 -0.23459315 0.021939665
0.79543298 -0.23568676 0.024140298
0.80585265 -0.23433551 0.024263412
0.81566536 -0.23445511 0.025570488
0.82502842 -0.23577899 0.025336802
0.8340227 -0.23395593 0.025901342
0.84638596 -0.23663957 0.027007068
0.85498178 -0.23345566 0.027748728
0.90546459 -0.23190516 0.020277679
0.91191357 -0.23703802 0.020414025
0.94582468 -0.23310041 0.020155311
0.9650355 -0.23542365 0.021774262
0.97306603 -0.23459953 0.02137962
0.98241878 -0.23441911 0.021727741
0.99180484 -0.23421705 0.022054166
1.0059136 -0.23408426 0.024653992
1.0177099 -0.23498267 0.026263395
1.0263383 -0.2356246 0.024827978
1.0312009 -0.23164237 0.023588419
1.0460516 -0.23388618 0.026775083
1.0562515 -0.2338125 0.027286649
1.064661 -0.23514545 0.027169883
1.0758694 -0.2352746 0.025953844
1.085585 -0.23485789 0.026065469
1.0937916 -0.23387891 0.027521968
1.1041106 -0.23600233 0.02829355
1.1143357 -0.23246013 0.026552716
1.122836 -0.2343377 0.024931291
1.1376002 -0.2335704 0.025630772
1.1520857 -0.23507017 0.027980715
1.1657209 -0.23834223 0.027991474
1.1742865 -0.23554291 0.027628502
1.1848769 -0.23444742 0.029151946
1.207155 -0.23158115 0.029518008
1.2138692 -0.23662633 0.028809547
1.2242749 -0.23357594 0.028329909
1.2338026 -0.23496723 0.02816996
1.2456813 -0.23245096 0.028337598
1.2543354 -0.23341584 0.02767539
1.2674772 -0.23378491 0.028761685
1.2785382 -0.23077196 0.028398633
1.2875276 -0.23426098 0.028181076
1.2984378 -0.23854148 0.028842688
-0.48407841 -0.22401509 0.02307545
-0.47379756 -0.22553973 0.022356251
-0.46484327 -0.22682206 0.021445096
-0.45932972 -0.22753143 0.020065188
-0.41351965 -0.22916734 0.021280766
-0.40913278 -0.22653329 0.020093322
-0.062647089 -0.22770706 0.020972461
-0.023326904 -0.22725859 0.020414457
-0.011082053 -0.22351462 0.020008683
0.0050256997 -0.22873302 0.020994941
0.015307926 -0.22684537 0.020929763
0.024649071 -0.22437681 0.020489266
0.038687289 -0.22916859 0.022707462
0.044175833 -0.22590132 0.022139261
0.055524725 -0.22531149 0.022395892
0.065369733 -0.22519591 0.021560123
0.074505113 -0.22543092 0.023002565
0.084661394 -0.22563672 0.02233394
0.094481893 -0.22405328 0.023991618
0.10494629 -0.22510962 0.024063608
0.11453787 -0.22526109 0.024097463
0.12452378 -0.22417472 0.023597727
0.13485886 -0.22367378 0.024912009
0.14555362 -0.22496796 0.024103947
0.15571596 -0.22543131 0.022692373
0.16532065 -0.22529584 0.022948829
0.17425066 -0.22460842 0.022967231
0.18496805 -0.22622028 0.024137508
0.19492389 -0.22410952 0.023446113
0.2054572 -0.22514391 0.025965581
0.21549024 -0.22533409 0.026715904
0.22440866 -0.22510493 0.026426161
0.23540686 -0.2249821 0.02620849
0.24581252 -0.22518083 0.026932511
0.25441819 -0.22455516 0.025641691
0.26415533 -0.22532061 0.025087744
0.27537689 -0.22557208 0.024384055
0.2855379 -0.22602035 0.021952763
0.29082799 -0.22437382 0.021010935
0.42422435 -0.22730292 0.020182431
0.69455278 -0.2208579 0.020152152
0.70071477 -0.2256472 0.021050075
0.71068966 -0.22598511 0.020607054
0.7318325 -0.22528525 0.020322105
0.74652892 -0.22506393 0.021063825
0.75700802 -0.22408785 0.02261124
0.76473898 -0.2255782 0.022192189
0.77540368 -0.224196 0.021698982
0.78593862 -0.22485451 0.023137152
0.79582673 -0.22526218 0.024033526
0.80500346 -0.22363289 0.024297893
0.81388986 -0.22478132 0.024807846
0.82329506 -0.2237976 0.024739048
0.8339051 -0.22545938 0.026332866
0.84612745 -0.22421534 0.027005643
0.85686189 -0.22468673 0.028081879
0.8652336 -0.22549206 0.02856507
0.89926964 -0.22910523 0.020695806
0.91553688 -0.22580898 0.020126164
0.92322594 -0.22716665 0.020148158
0.93867606 -0.22986364 0.020138323
0.94704932 -0.22930545 0.020058036
0.96390116 -0.22616175 0.021591038
0.9744029 -0.22518125 0.021985019
0.98577386 -0.22714123 0.022036076
0.99381971 -0.22563095 0.022876522
1.0005283 -0.22281647 0.024227381
1.0154003 -0.22497123 0.025461316
1.0257665 -0.22713214 0.024447352
1.0355408 -0.22484539 0.026579395
1.0447056 -0.22448462 0.028751135
1.0514601 -0.22502655 0.027758539
1.0635186 -0.22640854 0.0279573
1.0733974 -0.22524478 0.027351782
1.0857557 -0.22584254 0.026731759
1.0955065 -0.22536945 0.026828378
1.1041946 -0.22454691 0.028513193
1.1177323 -0.22621155 0.027021646
1.1260846 -0.22498648 0.02624478
1.1343952 -0.22303873 0.026757091
1.1471401 -0.22607024 0.028626621
1.1590481 -0.22158325 0.028796911
1.167706 -0.22509646 0.028840065
1.1747662 -0.22552016 0.027629673
1.2071035 -0.22193074 0.027902842
1.2121811 -0.2238356 0.025983691
1.2240068 -0.22619808 0.027009815
1.2319697 -0.22375603 0.027047694
1.245952 -0.22436948 0.025661925
1.2542905 -0.2213085 0.027933896
1.2722305 -0.22504537 0.027852774
1.2879868 -0.229514 0.027617514
1.2941334 -0.2270869 0.029764354
1.3227024 -0.22313035 0.027283907
1.336858 -0.22849071 0.027040213
1.3588766 -0.22250234 0.027790666
1.361336 -0.22246505 0.024580538
1.3715889 -0.22382642 0.022816151
-0.47367403 -0.21750939 0.020678133
0.0059236884 -0.21831566 0.020357728
0.014425278 -0.21558471 0.020418843
0.020133391 -0.21410161 0.020761549
0.037788689 -0.21785522 0.020919919
0.045987606 -0.21760659 0.021395827
0.05486327 -0.21498169 0.021533787
0.06410899 -0.21556029 0.020695508
0.074940242 -0.21688576 0.021603405
0.085461535 -0.21398711 0.021271419
0.093383193 -0.21393277 0.022005275
0.1047178 -0.21501024 0.02329186
0.11519096 -0.21608455 0.023409685
0.12501346 -0.21480119 0.024066074
0.13484192 -0.21471038 0.024123419
0.14648238 -0.2167152 0.024695158
0.15506437 -0.21561809 0.023915341
0.16462229 -0.21400201 0.024829276
0.17499343 -0.21634308 0.023012102
0.18498787 -0.21502458 0.024841275
0.19529335 -0.21221603 0.024729023
0.20527816 -0.21472883 0.025655985
0.21516721 -0.21469307 0.024868032
0.22505184 -0.21452336 0.024631768
0.23510684 -0.2146989 0.025387257
0.245684 -0.21528235 0.025783945
0.25513372 -0.21394436 0.024511168
0.26537699 -0.21570097 0.023923984
0.27454174 -0.21450715 0.023037434
0.28393289 -0.21525319 0.021261722
0.68957579 -0.21984796 0.020292819
0.69333667 -0.21413517 0.020953914
0.70202905 -0.21605545 0.021670798
0.72383046 -0.21625209 0.020448912
0.73571223 -0.2160275 0.020818731
0.74757862 -0.21618222 0.022501662
0.75489312 -0.21401617 0.022301793
0.76526546 -0.21536946 0.022184541
0.77319741 -0.21340875 0.021744689
0.78307939 -0.21554096 0.022789448
0.79566187 -0.21465445 0.023525059
0.80729598 -0.21352439 0.024168491
0.81507504 -0.21578702 0.024487484
0.82303756 -0.21480626 0.024239153
0.83437777 -0.21549492 0.025890848
0.84657645 -0.21461232 0.027990302
0.85413647 -0.21521392 0.027359117
0.86434746 -0.21429382 0.027587017
0.8736999 -0.21276461 0.029619575
0.90593368 -0.21303049 0.021052688
0.91214627 -0.21578604 0.020630538
0.9464888 -0.21182299 0.020683348
0.95566374 -0.21601003 0.021892348
0.96409303 -0.2153759 0.021784743
0.9745658 -0.215725 0.022847593
0.98248243 -0.21475659 0.022360921
0.99360895 -0.21533947 0.023713013
1.0032798 -0.21741596 0.024582088
1.014238 -0.21693416 0.024144709
1.0213089 -0.21179101 0.023792386
1.0347983 -0.21330443 0.026287943
1.0425566 -0.2143231 0.025898576
1.0562922 -0.21584707 0.028411031
1.0641626 -0.21457481 0.027597686
1.0749395 -0.21532039 0.025888896
1.0877054 -0.21980071 0.026576996
1.0914477 -0.21457848 0.027397364
1.102119 -0.21446136 0.027974933
1.1150606 -0.21515827 0.027515218
1.1252748 -0.21391509 0.026875814
1.1356803 -0.21422321 0.0258286
1.1497113 -0.21541128 0.027964622
1.1568707 -0.21284492 0.02780815
1.1661099 -0.21491069 0.026418248
1.1783794 -0.21757209 0.027887106
1.1817822 -0.21190029 0.028433681
1.1970999 -0.21641378 0.028540453
1.2103229 -0.21849382 0.028726578
1.2214274 -0.21811783 0.029016376
1.235822 -0.21883768 0.026404619
1.2435093 -0.21475631 0.029003829
1.2582562 -0.21796143 0.026832342
1.2673273 -0.21502586 0.027181426
1.2749417 -0.21703517 0.024719864
1.2803521 -0.21188021 0.026140273
1.2967836 -0.21493535 0.027431509
1.3159536 -0.21562997 0.02669096
-0.45778644 -0.20408243 0.02011019
0.0096661747 -0.2074793 0.020074368
0.012475118 -0.2064898 0.020019472
0.037095308 -0.20812666 0.020430386
0.044162765 -0.20563707 0.020292372
0.054674257 -0.20485313 0.020584425
0.064867154 -0.2087145 0.020730019
0.074857861 -0.20539418 0.020704359
0.084927797 -0.20244385 0.021016022
0.095005326 -0.20531198 0.021657338
0.10497486 -0.20431665 0.022444556
0.11466925 -0.20571661 0.02300103
0.12502296 -0.20358171 0.022775905
0.13577126 -0.20454144 0.021925142
0.14454402 -0.20560879 0.023167828
0.15493399 -0.2047767 0.024198323
0.16543074 -0.20405912 0.024440885
0.17559735 -0.20687111 0.023858165
0.18494976 -0.20484941 0.02460885
0.1941976 -0.20211819 0.023357164
0.20516299 -0.20462066 0.025518904
0.21473336 -0.20383781 0.023393765
0.22611813 -0.20492263 0.024603894
0.23500177 -0.20596123 0.025236821
0.24490547 -0.20490873 0.02416707
0.25503492 -0.20438039 0.023573529
0.26438865 -0.20605397 0.024120569
0.27448782 -0.20547684 0.022825453
0.28319064 -0.20751053 0.020718157
0.69170594 -0.20291075 0.020245209
0.70426786 -0.20444688 0.021303797
0.71220332 -0.204614 0.020903727
0.72220087 -0.20820709 0.020525336
0.73636669 -0.20602204 0.020914396
0.74569768 -0.20459473 0.021686116
0.75512666 -0.20486681 0.022525111
0.76535487 -0.20606521 0.022909701
0.77339685 -0.20403823 0.023150122
0.78528523 -0.20576878 0.023988565
0.79757082 -0.20549023 0.024934029
0.80512285 -0.20530854 0.024722487
0.81472796 -0.20517893 0.024674546
0.82327259 -0.20526148 0.025071576
0.83592004 -0.20521541 0.026571611
0.84655339 -0.20378397 0.027591089
0.85465062 -0.20523682 0.027351892
0.86444128 -0.20449175 0.028328583
0.87320411 -0.20530666 0.029033899
0.89339185 -0.20516063 0.020259678
0.90564817 -0.20507491 0.020751098
0.92593616 -0.20277703 0.021062851
0.93365949 -0.20404845 0.021077245
0.94468653 -0.20590253 0.021168899
0.95356381 -0.20414203 0.020703614
0.96577758 -0.20292354 0.020298481
0.9783836 -0.20648196 0.023026019
0.98597533 -0.20471883 0.023638448
0.99595755 -0.20468353 0.024316112
1.0029354 -0.20499648 0.02319783
1.0150163 -0.20691882 0.024121484
1.026912 -0.2054179 0.025342405
1.0373412 -0.20542362 0.026085913
1.0469249 -0.20499095 0.026307404
1.0585644 -0.20775139 0.028042078
1.0644546 -0.20342636 0.027904361
1.0746387 -0.20528258 0.026564619
1.080274 -0.2052139 0.0248757
1.0913571 -0.20529556 0.025727868
1.1015812 -0.20494586 0.026067197
1.1150053 -0.20597449 0.02807638
1.1241527 -0.20418461 0.026140094
1.1343703 -0.2068197 0.026873589
1.1451242 -0.20428884 0.028383911
1.1559092 -0.20466566 0.027450303
1.162318 -0.2017414 0.026894003
1.1703219 -0.20726174 0.026993811
1.1978102 -0.20413494 0.029753268
1.2027153 -0.20595217 0.027775982
1.2155631 -0.2038886 0.028580219
1.2246051 -0.20499349 0.02822566
1.2378565 -0.2029781 0.029128999
1.2479012 -0.20443565 0.029190004
1.2580525 -0.20666187 0.027898869
1.2645342 -0.20581332 0.025276989
1.275179 -0.20360444 0.025517663
0.044999793 -0.19660681 0.02075392
0.064075947 -0.19576152 0.020639682
0.076906726 -0.19542186 0.020788392
0.085280038 -0.19535622 0.020803588
0.095513515 -0.1942142 0.021487474
0.10444614 -0.19409759 0.021388868
0.11596289 -0.19643366 0.023252318
0.12548067 -0.19432284 0.023160858
0.13541943 -0.19588068 0.023206761
0.14657569 -0.1961439 0.023175776
0.15412298 -0.19365397 0.022361482
0.16430201 -0.1955663 0.022726953
0.17489439 -0.19653694 0.02280429
0.18483031 -0.19452956 0.024140563
0.19496532 -0.19366948 0.022528281
0.20467499 -0.19449744 0.023962867
0.21515532 -0.19352157 0.02287524
0.22464229 -0.19449578 0.023817489
0.23464927 -0.19554326 0.02340596
0.24437414 -0.19438888 0.022946715
0.25449806 -0.19582562 0.022214543
0.26548848 -0.19656163 0.023287941
0.27322927 -0.19600464 0.021638144
0.41112122 -0.1901346 0.020525813
0.67017126 -0.19286858 0.020099759
0.68083453 -0.19504143 0.020527244
0.69404781 -0.19769387 0.020837098
0.70242566 -0.19775122 0.021239102
0.71222442 -0.19620676 0.020585537
0.72718686 -0.19350165 0.0212592
0.73720711 -0.19710335 0.022200108
0.7446897 -0.19496621 0.022185087
0.7539801 -0.19528726 0.021730173
0.76571006 -0.19552138 0.022158766
0.77448785 -0.19315846 0.022915453
0.78497916 -0.19519222 0.023377826
0.7967599 -0.19469169 0.023965633
0.80629408 -0.19507816 0.025162995
0.8129276 -0.19533812 0.024702251
0.82464236 -0.1960488 0.026694825
0.83683681 -0.1955163 0.027255166
0.84640008 -0.19434904 0.028512796
0.85325462 -0.19350751 0.028665036
0.86321861 -0.19546464 0.028633034
0.87462807 -0.19475557 0.029606581
0.88015747 -0.19383679 0.029107749
0.89444202 -0.1971947 0.020299613
0.92807269 -0.19513385 0.020697236
0.93868858 -0.19563168 0.022044977
0.94763279 -0.19525659 0.02233237
0.95137686 -0.19667435 0.020295024
0.96891946 -0.19783571 0.02091831
0.97119945 -0.19231969 0.021026969
0.98614055 -0.19448265 0.022529498
1.0048975 -0.1945796 0.022881877
1.0190405 -0.1975812 0.024373531
1.0253099 -0.19583392 0.024958491
1.0332609 -0.19547056 0.025172094
1.0454873 -0.19623078 0.026902756
1.0534171 -0.1943329 0.027492106
1.0652437 -0.19464926 0.02671355
1.0748829 -0.19394463 0.024671674
1.0827588 -0.19486247 0.024211287
1.094856 -0.19764009 0.026008874
1.1042992 -0.1946709 0.0266103
1.1148163 -0.19428702 0.0259613
1.1243172 -0.19581938 0.026224613
1.1390078 -0.19957459 0.029186606
1.1460437 -0.19462128 0.028600613
1.1572896 -0.19515419 0.027911901
1.168668 -0.1950058 0.028580517
1.2041962 -0.19550718 0.028157732
1.2151175 -0.19340366 0.02812922
1.2261926 -0.19843519 0.027830601
1.2305856 -0.19301212 0.028826952
1.2539907 -0.19460833 0.025722355
1.2616369 -0.19432199 0.025924593
1.2722266 -0.19953175 0.020556927
0.042913407 -0.18786743 0.020548671
0.077362075 -0.18520701 0.020122051
0.086965486 -0.18658102 0.020041525
0.098411873 -0.18333817 0.020500898
0.10455004 -0.18651189 0.021531131
0.11550653 -0.18594997 0.021853507
0.12498037 -0.18392302 0.02183337
0.13471046 -0.18601605 0.021791875
0.14546657 -0.18705627 0.022576239
0.15518475 -0.18467653 0.021538248
0.16523267 -0.18499234 0.021070294
0.17482112 -0.18630467 0.022313753
0.1846669 -0.18417457 0.02295747
0.19538526 -0.18525505 0.023058316
0.20492458 -0.18473074 0.023215897
0.21518517 -0.18418817 0.023262339
0.2260509 -0.18461116 0.022811949
0.23551531 -0.18544064 0.022421826
0.24518101 -0.18532489 0.022506692
0.25575447 -0.18503459 0.021065092
0.26497814 -0.18557572 0.021664193
0.42626241 -0.18775658 0.020153821
0.44217148 -0.18701658 0.020385414
0.45840439 -0.18332444 0.02047956
0.67050481 -0.18639563 0.02009511
0.68398368 -0.18247861 0.020457625
0.69271833 -0.1826127 0.021212429
0.72421616 -0.18518059 0.021129608
0.73629129 -0.18659191 0.02111192
0.74701405 -0.18446659 0.021876296
0.75672388 -0.18541689 0.021936178
0.76266772 -0.18311138 0.022121295
0.77414435 -0.18565398 0.023803866
0.78704733 -0.18533792 0.024476519
0.7974714 -0.18288742 0.024640039
0.80494851 -0.18577403 0.024492657
0.8136791 -0.18493415 0.024843648
0.82390779 -0.18514527 0.025797972
0.83339757 -0.18511207 0.026176721
0.84417772 -0.1847613 0.027759086
0.85640544 -0.18503329 0.028430894
0.86554492 -0.18508855 0.028997231
0.92992443 -0.1873517 0.02015841
0.93637586 -0.18379346 0.02069436
0.94664186 -0.18601155 0.020073533
0.96624696 -0.18372715 0.021148503
0.97308588 -0.18440711 0.020490726
0.98621505 -0.18583597 0.023078283
0.99445635 -0.18491252 0.022754669
1.0050578 -0.18505873 0.02376163
1.0130674 -0.18395686 0.023231426
1.0243309 -0.18431957 0.024524888
1.0323561 -0.18540561 0.024339855
1.0461073 -0.18455136 0.026526472
1.0537523 -0.18540955 0.026048481
1.0660458 -0.18450586 0.024853563
1.0777123 -0.18835014 0.025008917
1.082788 -0.18373066 0.026573032
1.0944353 -0.18624727 0.028141221
1.115247 -0.18549156 0.028975567
1.1355476 -0.18668365 0.029765308
1.1447544 -0.1855514 0.027192771
1.1556305 -0.18520546 0.027659178
1.164724 -0.18489359 0.028029203
1.1710949 -0.18424928 0.027839959
1.1839151 -0.18459117 0.029190898
1.1940045 -0.18377161 0.029096365
1.2043794 -0.18540412 0.029502928
1.2122039 -0.18361619 0.028195143
1.2237324 -0.18565643 0.029100716
1.2328939 -0.18913579 0.029181719
1.2479461 -0.18213634 0.026303161
1.2523618 -0.18670468 0.024084449
-0.47503906 -0.17649013 0.020000041
0.069500729 -0.1785019 0.020029545
0.10285264 -0.17701489 0.020309111
0.1284862 -0.17989069 0.02205199
0.13580789 -0.17453267 0.02085655
0.14595407 -0.17520905 0.020956328
0.15537977 -0.17508698 0.020821711
0.16620991 -0.17680618 0.020968407
0.17480801 -0.17637555 0.022000005
0.18496814 -0.1745016 0.022236854
0.1942451 -0.17516088 0.021943092
0.20524986 -0.17530681 0.022697056
0.21317859 -0.17353769 0.021180287
0.22436441 -0.1753224 0.022047907
0.23505637 -0.17592292 0.021821644
0.24474263 -0.17486559 0.021043098
0.25589341 -0.17655562 0.02122578
0.26141924 -0.17665124 0.021113634
0.54324698 -0.1725463 0.020293325
0.598436 -0.17416333 0.020687371
0.60777915 -0.17119126 0.020449579
0.61824596 -0.17013888 0.021160662
0.62540829 -0.17244963 0.020519951
0.67083848 -0.17992274 0.020090401
0.69193643 -0.17404144 0.020259708
0.70446336 -0.17478909 0.020867854
0.71530068 -0.17436671 0.020433854
0.72682256 -0.17482199 0.020944765
0.73742419 -0.17604436 0.022550544
0.74461919 -0.1755206 0.021784872
0.75238401 -0.17515872 0.02141293
0.7635904 -0.17406447 0.023453444
0.77633995 -0.17547239 0.024299519
0.78590107 -0.17452891 0.023263335
0.79694676 -0.17536914 0.023654977
0.80135465 -0.17210431 0.023920983
0.81214112 -0.17532656 0.025865531
0.82629585 -0.17513591 0.027075311
0.83629405 -0.17518488 0.027793109
0.84180069 -0.17429078 0.027417282
0.85215217 -0.17553587 0.028721929
0.86567277 -0.17506973 0.02955078
0.9187988 -0.17621207 0.020621508
0.92102784 -0.17083001 0.020739853
0.93586916 -0.17505905 0.020861238
0.94380504 -0.17414308 0.020564258
0.95316648 -0.17605485 0.02150321
0.96148098 -0.17307535 0.020949334
0.97351354 -0.17608911 0.022308961
0.98232543 -0.17333624 0.023041248
0.99299967 -0.17555545 0.022418141
1.0071597 -0.17490488 0.022924036
1.014881 -0.17364603 0.022227556
1.0257167 -0.17375773 0.023271441
1.0355188 -0.17560478 0.024088701
1.0497348 -0.17488259 0.026522487
1.0567966 -0.17544943 0.025712172
1.0655144 -0.1767303 0.025794327
1.0726107 -0.17435052 0.025862336
1.085821 -0.17591831 0.026613086
1.094676 -0.17489707 0.026253909
1.1092408 -0.17856544 0.029337227
1.1190774 -0.17788094 0.029414296
1.1212971 -0.17419642 0.029795289
1.1364179 -0.17543049 0.028218627
1.1481267 -0.17774546 0.029567122
1.1539062 -0.17454867 0.02871114
1.163033 -0.17412648 0.02690649
1.173409 -0.17575973 0.026333824
1.1858916 -0.17360228 0.028214663
1.1960312 -0.1774908 0.028935403
1.2064147 -0.17909741 0.029341221
1.216327 -0.17573336 0.028679699
1.2393224 -0.17249012 0.029209256
1.2465053 -0.17497577 0.02483367
0.089702234 -0.16274214 0.020038247
0.12721059 -0.1648736 0.020741165
0.13558164 -0.16686314 0.020868346
0.155045 -0.16895238 0.020170957
0.17530443 -0.16533831 0.021074934
0.18454373 -0.16400717 0.02090787
0.19544412 -0.16483758 0.020651808
0.20439082 -0.16497527 0.021261938
0.21696788 -0.16823517 0.020799318
0.22503066 -0.16512586 0.021081507
0.234612 -0.16578092 0.021308174
0.24485715 -0.16638532 0.020483911
0.25485235 -0.16512972 0.020566761
0.4554719 -0.16353396 0.02052257
0.48387817 -0.16221644 0.02035594
0.53539193 -0.16040702 0.020598054
0.5436362 -0.16499366 0.020287851
0.56162155 -0.16232376 0.020234168
0.59875697 -0.16793446 0.020682842
0.6084041 -0.16662474 0.020776153
0.61857063 -0.16384049 0.021156093
0.62511736 -0.16496818 0.020622959
0.63735592 -0.16080491 0.020486474
0.69227374 -0.16749768 0.02025497
0.7035498 -0.16798361 0.020903766
0.71648234 -0.16624437 0.021609932
0.72425425 -0.16415097 0.021938313
0.73417133 -0.16519114 0.021725237
0.74364281 -0.1655241 0.021891451
0.75243187 -0.16445616 0.022651255
0.76415443 -0.16450185 0.023093272
0.77601486 -0.16615638 0.025018305
0.78564477 -0.16478173 0.024066389
0.79532331 -0.16505156 0.024496466
0.80213392 -0.1652931 0.02421546
0.81266338 -0.16551001 0.025463352
0.82570219 -0.16429462 0.026277145
0.83619821 -0.16442434 0.027342528
0.84111327 -0.1651378 0.026625633
0.853549 -0.16574071 0.028903553
0.86786318 -0.16362943 0.029172823
0.89160794 -0.16237617 0.020284534
0.90658909 -0.1646136 0.020324528
0.93768591 -0.16942894 0.020716906
0.94565296 -0.16525303 0.022330869
0.95661145 -0.16617674 0.022781909
0.96490109 -0.16384317 0.021988407
0.97662473 -0.16445164 0.022745768
0.98556668 -0.16665073 0.021998366
0.99457365 -0.16524012 0.021281987
1.0051111 -0.16527465 0.022257805
1.0141796 -0.16538942 0.023200095
1.0217292 -0.16336671 0.023689806
1.0340288 -0.16527314 0.024050187
1.0414662 -0.16031349 0.024186373
1.0530678 -0.16507816 0.026352525
1.0614771 -0.16620079 0.026285082
1.0747901 -0.16563368 0.02562635
1.0859587 -0.16914278 0.025478065
1.0952985 -0.16505966 0.028053269
1.1026371 -0.16454074 0.028143674
1.1144674 -0.16236734 0.028922081
1.1209919 -0.16715509 0.02842629
1.1349123 -0.16565472 0.028019324
1.1468565 -0.16560459 0.026905477
1.1532159 -0.16576949 0.027623296
1.164148 -0.16613837 0.028964361
1.173944 -0.1667417 0.028338045
1.2385564 -0.16503391 0.027655691
1.2436063 -0.16474955 0.023821022
0.11355658 -0.1551176 0.020264417
0.15269098 -0.15154561 0.020470113
0.16808203 -0.15561146 0.020404935
0.17090386 -0.15461743 0.02034986
0.18699814 -0.15397175 0.021029463
0.19484618 -0.15619281 0.021283006
0.20494939 -0.15454973 0.020919248
0.226817 -0.15966797 0.020335793
0.23984633 -0.15990937 0.020127892
0.24443969 -0.1590915 0.020712346
0.25162303 -0.15656114 0.020572066
0.42815498 -0.151035 0.020127296
0.44754606 -0.15345098 0.020036906
0.45352763 -0.15518115 0.021368742
0.46811593 -0.15177834 0.020454496
0.47655627 -0.1549768 0.020894269
0.48443073 -0.15498365 0.020527467
0.49253905 -0.15355442 0.02024585
0.50079191 -0.15364151 0.020108283
0.52690268 -0.15422265 0.020528138
0.55352241 -0.1531736 0.020612031
0.56225049 -0.15011956 0.020225346
0.57153583 -0.15187483 0.020481527
0.58087242 -0.15363277 0.020697137
0.60874701 -0.15241055 0.020435989
0.61828661 -0.1541463 0.020492673
0.6264267 -0.15778382 0.020726999
0.63807333 -0.15457006 0.02080676
0.69392049 -0.15137284 0.020874321
0.71663159 -0.15535137 0.021289945
0.72489822 -0.15487258 0.022055769
0.73550779 -0.15538642 0.022337029
0.74608958 -0.15374869 0.022025451
0.75348061 -0.15592054 0.022483781
0.76483065 -0.15544154 0.023643563
0.77721643 -0.15592311 0.024479697
0.78712881 -0.15409616 0.024384663
0.79490149 -0.15539174 0.024449874
0.80201721 -0.15647788 0.023809871
0.81292009 -0.15497644 0.025256654
0.82536864 -0.15456733 0.026715726
0.83464336 -0.15459463 0.027558565
0.84128302 -0.15622133 0.026422918
0.85438746 -0.15512446 0.029091001
0.8666169 -0.15709469 0.029141694
0.87904608 -0.15491188 0.020390958
0.8846032 -0.15934789 0.020103097
0.92704159 -0.15219295 0.020262122
0.93445653 -0.15531103 0.02052772
0.94743985 -0.15452737 0.022880077
0.95494622 -0.15548877 0.022706827
0.96576267 -0.15560341 0.021917909
0.98385638 -0.15528131 0.022118866
0.9970122 -0.15548094 0.022798598
1.0043722 -0.1562579 0.022351205
1.0159422 -0.15444697 0.023471853
1.0237982 -0.15539122 0.023238838
1.0346724 -0.15540364 0.024275064
1.0438099 -0.15462029 0.024285197
1.0561028 -0.15514803 0.026016653
1.0628825 -0.15553699 0.025039753
1.0759629 -0.15857351 0.027507901
1.0848962 -0.15535508 0.027925476
1.0985489 -0.15393305 0.028693467
1.1060389 -0.1545282 0.027966857
1.1159348 -0.1548986 0.027206123
1.1249245 -0.15496755 0.028113902
1.1347098 -0.15639356 0.027412862
1.1433692 -0.15281826 0.027481735
1.1550164 -0.1596092 0.029572368
1.2361443 -0.15465371 0.027130812
1.2465225 -0.15480487 0.025221752
0.15970695 -0.1490742 0.020333111
0.16402599 -0.14794409 0.020592988
0.19090007 -0.14836067 0.020644069
0.43717894 -0.14295238 0.020981818
0.44490597 -0.14298379 0.020836273
0.4645513 -0.14478286 0.02057009
0.47696394 -0.14475548 0.020768479
0.48298961 -0.14492193 0.020217335
0.49276581 -0.14915372 0.020242691
0.5021143 -0.14210363 0.020800233
0.5146296 -0.141387 0.020520538
0.5644117 -0.14336558 0.02049017
0.57235163 -0.14590277 0.020926079
0.58331895 -0.14468716 0.020399988
0.60958087 -0.14631188 0.020871421
0.61438519 -0.14398947 0.020787507
0.62820363 -0.14955901 0.020504177
0.64811933 -0.14179394 0.020406336
0.67363536 -0.14131407 0.020700276
0.68666673 -0.14355262 0.020957598
0.69630861 -0.14525889 0.021465555
0.70473766 -0.14493582 0.020887077
0.71368349 -0.14561608 0.022090519
0.72430658 -0.14486183 0.022484507
0.73170489 -0.14445348 0.021099171
0.74207801 -0.14641471 0.022825262
0.75331408 -0.14488479 0.022949049
0.76424831 -0.14494534 0.022822818
0.77704972 -0.1454684 0.02396656
0.78796393 -0.14399557 0.025615493
0.7948274 -0.14493333 0.02441589
0.80468524 -0.14487226 0.025248766
0.81628782 -0.14523615 0.027237386
0.82698107 -0.14506219 0.026461169
0.83734149 -0.14504659 0.027426878
0.8424018 -0.1457587 0.026807845
0.85375708 -0.14301068 0.026877403
0.86465073 -0.14237334 0.029367447
0.88372684 -0.14169724 0.029648542
0.8995716 -0.14072055 0.020249128
0.91574258 -0.14333504 0.020983279
0.92824429 -0.14846551 0.020166636
0.94760209 -0.1438068 0.020908615
0.95456439 -0.142335 0.020002544
0.96289855 -0.14794683 0.021119714
0.97074229 -0.14900291 0.021087766
0.98220128 -0.14510787 0.021915317
0.99424314 -0.14477441 0.021963215
1.0066041 -0.14622842 0.021597624
1.0196228 -0.14720035 0.023945928
1.0242004 -0.14456123 0.022512957
1.0366399 -0.14512825 0.023356497
1.043666 -0.1456452 0.022586435
1.0586499 -0.14725417 0.025814325
1.0661839 -0.14350477 0.025524572
1.0841888 -0.14518061 0.027286327
1.1016409 -0.14382154 0.028354147
1.1118654 -0.14548537 0.029091954
1.1258001 -0.14852631 0.029568106
1.1334091 -0.14680248 0.028418511
1.1490231 -0.14813024 0.029249012
1.2293563 -0.14514375 0.029268742
1.2382321 -0.14835095 0.029208481
1.2473762 -0.14565685 0.024036443
1.2508017 -0.14517429 0.025664469
0.4297044 -0.13434194 0.020846009
0.43596023 -0.13489527 0.021308154
0.44732451 -0.13428655 0.021230543
0.45486945 -0.13411559 0.020678546
0.46471506 -0.13459566 0.021017229
0.47721231 -0.13300034 0.020404726
0.48566112 -0.13459718 0.020689458
0.4943839 -0.13179438 0.020933747
0.50249445 -0.13472755 0.020794898
0.51511562 -0.13550742 0.020690545
0.52778369 -0.13473235 0.020398995
0.54534888 -0.13176207 0.020263791
0.55453992 -0.13343041 0.020597756
0.56370354 -0.13662831 0.020892173
0.57291782 -0.13984524 0.021146119
0.58091295 -0.13797645 0.020015895
0.59282058 -0.13697387 0.020226449
0.60220337 -0.13450009 0.020786881
0.61048239 -0.13385993 0.021082342
0.62561142 -0.13386115 0.020880032
0.63789022 -0.13448854 0.020796761
0.64844871 -0.13540283 0.020401746
0.65398312 -0.13369329 0.02077955
0.67500442 -0.13498127 0.020511046
0.68703693 -0.13373189 0.020845324
0.69449615 -0.13492607 0.020652076
0.70546627 -0.13344882 0.020983377
0.71458882 -0.13444716 0.022332121
0.72500557 -0.13588732 0.022655666
0.73276776 -0.13457663 0.021504799
0.74301004 -0.13644375 0.02312536
0.75438815 -0.13489324 0.023350349
0.76615983 -0.13510861 0.023831854
0.77734756 -0.13541727 0.025831124
0.78490704 -0.1344797 0.025516462
0.79349273 -0.13538525 0.026166841
0.80543536 -0.13589288 0.027881753
0.81650352 -0.13402405 0.027387237
0.82453549 -0.13726352 0.026533807
0.83348578 -0.13468572 0.027481556
0.84347695 -0.13476269 0.028776979
0.85501301 -0.13430271 0.028367151
0.86570036 -0.1389984 0.029948711
0.871593 -0.13656923 0.025036335
0.90521049 -0.13558957 0.020567084
0.93537694 -0.13246483 0.020781547
0.94342595 -0.13363093 0.020993551
0.95178723 -0.13492385 0.021359622
0.96926516 -0.13129568 0.021198392
0.97800392 -0.13267007 0.02167666
0.98746759 -0.1365186 0.022950053
0.9930439 -0.13367172 0.022392949
1.006254 -0.13486758 0.022709083
1.0154343 -0.13561851 0.021869674
1.0250406 -0.13394347 0.022037297
1.0322186 -0.13242245 0.023143202
1.0444791 -0.13720368 0.023580164
1.0536268 -0.13279368 0.026495
1.0665489 -0.13483839 0.027365884
1.0744029 -0.13560426 0.026958883
1.0836731 -0.13467905 0.026895493
1.0923312 -0.13572548 0.026863238
1.1066561 -0.13674492 0.029454589
1.1576109 -0.13387084 0.02019757
1.2267095 -0.13476387 0.028606474
1.2371929 -0.13849163 0.027131975
1.244015 -0.1354228 0.024547601
0.4296906 -0.12569566 0.020352563
0.43612409 -0.12461823 0.020506179
0.44636944 -0.12662645 0.020441696
0.45579404 -0.12544832 0.021278322
0.46529919 -0.1265339 0.020951305
0.47472671 -0.12377611 0.020502105
0.48429465 -0.12518172 0.020485854
0.49624336 -0.12473077 0.021024117
0.50421923 -0.12479613 0.021955034
0.51332653 -0.12617837 0.020561695
0.52668989 -0.12481424 0.020913467
0.53717434 -0.12582175 0.02057305
0.54590601 -0.12579705 0.020487329
0.55703467 -0.12407957 0.020788144
0.5642544 -0.12594013 0.020884454
0.58205122 -0.1258034 0.020453691
0.59117883 -0.12261938 0.020181954
0.60105151 -0.12591799 0.020762959
0.61316156 -0.12480307 0.020924702
0.62501287 -0.12515321 0.020807311
0.63463724 -0.12674299 0.02080296
0.64349568 -0.12441547 0.021649301
0.65394193 -0.12564014 0.021557799
0.66299123 -0.12279619 0.02192856
0.67350721 -0.12813954 0.02005291
0.68580872 -0.1227966 0.020444751
0.69650984 -0.12310664 0.020386061
0.70732403 -0.12392095 0.022022566
0.71539068 -0.12526093 0.022576189
0.72293329 -0.1264876 0.022889242
0.7322461 -0.12456343 0.022739798
0.74339193 -0.12632748 0.023015698
0.75573868 -0.12495527 0.023956398
0.76711267 -0.12550767 0.025374651
0.77550423 -0.12407865 0.025697768
0.78469622 -0.12538503 0.025026416
0.79488188 -0.12406465 0.024356136
0.80503386 -0.125645 0.024785677
0.81536371 -0.12481561 0.026869416
0.82459676 -0.12470637 0.0277506
0.83243608 -0.12476228 0.027430624
0.84339571 -0.12475742 0.028773099
0.8568756 -0.12436765 0.028994203
0.919671 -0.12812287 0.020077348
0.93632251 -0.12648278 0.020115733
0.94589823 -0.12189102 0.020011663
0.95511031 -0.12564729 0.021291494
0.96325183 -0.12462872 0.0210704
0.97403741 -0.12471654 0.02237761
0.9828229 -0.12390725 0.022459447
0.9961583 -0.12601869 0.024286836
1.0057712 -0.1243296 0.02347441
1.0170201 -0.12432504 0.022691607
1.0258839 -0.12779701 0.023448586
1.0357935 -0.12382549 0.025017941
1.0489728 -0.12361956 0.025425553
1.0539507 -0.12551375 0.02532818
1.067903 -0.12644613 0.026500463
1.0743685 -0.12594151 0.026637277
1.0851792 -0.12636825 0.028279573
1.0927689 -0.12703544 0.029847145
1.100352 -0.12987363 0.02960813
1.1539323 -0.12958562 0.020832181
1.2170502 -0.12659241 0.025240341
1.2266515 -0.12769386 0.023543358
1.2302496 -0.12608458 0.023444355
0.42270428 -0.11735901 0.020670354
0.43230969 -0.1154945 0.020500213
0.4459931 -0.11286451 0.02033177
0.45639819 -0.11419386 0.021178415
0.46460316 -0.11478392 0.021088878
0.47404504 -0.11497972 0.021198958
0.48426637 -0.11402728 0.020698285
0.49481753 -0.11402291 0.020451784
0.50261474 -0.11827229 0.020082712
0.51334172 -0.11472559 0.020688096
0.52515298 -0.11628217 0.021084905
0.5354867 -0.11375517 0.02085563
0.546574 -0.11525783 0.020593613
0.56515211 -0.1149269 0.020361733
0.5741837 -0.11528333 0.021128377
0.58426642 -0.11557412 0.020305086
0.59393644 -0.1146171 0.021194279
0.60186839 -0.11508146 0.020976201
0.61268365 -0.11446998 0.021076515
0.62317735 -0.11505982 0.021255005
0.63038498 -0.1148749 0.020805538
0.64284694 -0.11371231 0.021349991
0.65339655 -0.11539433 0.02154693
0.6639995 -0.11386538 0.021957397
0.67398709 -0.11469983 0.021484649
0.68556309 -0.11378846 0.020891448
0.69409209 -0.11518285 0.021545639
0.70483989 -0.11520199 0.021780213
0.71497124 -0.1150425 0.021446208
0.72522211 -0.11594252 0.021570038
0.73216283 -0.11342011 0.021233022
0.74444485 -0.11536524 0.023078127
0.75702029 -0.11425485 0.025496319
0.76520693 -0.115604 0.025233198
0.77623111 -0.11534609 0.025282249
0.78277069 -0.11539978 0.024903834
0.79422241 -0.11502577 0.02592627
0.80485523 -0.11455975 0.025878001
0.81611139 -0.11362055 0.028000534
0.82462913 -0.11482384 0.027822077
0.83288962 -0.11596227 0.027424276
0.84321481 -0.11643809 0.029035071
0.85679847 -0.1196219 0.029456377
0.8791011 -0.11159009 0.020041287
0.93959278 -0.11939931 0.020446599
0.95898598 -0.11874533 0.021962881
0.96442378 -0.11451524 0.021840513
0.97738844 -0.1153577 0.022306174
0.98396343 -0.11293533 0.02236867
0.99442726 -0.11340395 0.022106588
1.0035483 -0.11479739 0.022707859
1.0150927 -0.11497927 0.024252454
1.0225046 -0.11562979 0.023793012
1.0342757 -0.1158298 0.02536869
1.0451292 -0.11552811 0.024212494
1.0572188 -0.11575744 0.02585113
1.0647445 -0.11643565 0.027467549
1.0722874 -0.11710408 0.029072195
1.1870875 -0.11240739 0.026617363
1.196097 -0.1128036 0.023943761
1.2071608 -0.11840383 0.024116239
1.2118618 -0.11991127 0.026715457
0.42350188 -0.10188295 0.020659149
0.43401214 -0.10419939 0.0209892
0.44660553 -0.10436565 0.02050665
0.45683169 -0.10470036 0.020821154
0.46517655 -0.10411517 0.021396177
0.47542179 -0.10497532 0.021234976
0.48497877 -0.1043313 0.021001309
0.49619919 -0.1046523 0.021313829
0.50401497 -0.10522459 0.020773575
0.51341283 -0.10601212 0.02066116
0.52420956 -0.10507182 0.021001607
0.53558344 -0.10690815 0.020882666
0.54724228 -0.10471406 0.020699879
0.55510032 -0.10367922 0.020705938
0.56367761 -0.10345787 0.020325065
0.57415754 -0.10593291 0.020672718
0.58349472 -0.10275071 0.020660341
0.59197706 -0.1071324 0.020170748
0.60293984 -0.10431516 0.021410486
0.61365718 -0.1065494 0.02094375
0.62191194 -0.10407428 0.021331629
0.63341492 -0.1057845 0.020903617
0.64390272 -0.10424772 0.021405092
0.6544193 -0.10494672 0.021643043
0.66542143 -0.10442164 0.022699723
0.675129 -0.1058469 0.022424072
0.68713504 -0.10427898 0.021730443
0.6947332 -0.10539541 0.021643192
0.70527858 -0.10462832 0.021977613
0.7158888 -0.10521433 0.021752059
0.72400171 -0.10642073 0.021892468
0.73396307 -0.10467425 0.02324166
0.74630469 -0.10489359 0.024335245
0.757285 -0.10550375 0.024745155
0.76569057 -0.10524271 0.025392756
0.77358162 -0.1044504 0.025193358
0.78269136 -0.10585479 0.026111281
0.79509258 -0.10355318 0.027131191
0.80638969 -0.10523412 0.028034121
0.81323308 -0.10623523 0.028440198
0.82432067 -0.10789354 0.029402971
0.92559963 -0.10337895 0.020443618
0.93251497 -0.1019896 0.021729887
0.95280653 -0.1035403 0.020051956
0.96486741 -0.10688603 0.021311224
0.97432333 -0.10490056 0.021563688
0.98626298 -0.10381101 0.021457568
0.99689347 -0.10576075 0.021910697
1.0052872 -0.10399407 0.022966007
1.0158371 -0.1043894 0.022651941
1.025627 -0.10595366 0.023545027
1.0362787 -0.10569725 0.025909802
1.0448934 -0.10677147 0.02677545
1.0501487 -0.10655892 0.027164519
1.1052647 -0.10180146 0.021214843
1.1635718 -0.10304272 0.028093338
1.1745083 -0.104608 0.02676025
1.1850891 -0.10521951 0.024579061
1.1932145 -0.10656154 0.022349954
0.4171432 -0.095293604 0.021686355
0.42278409 -0.097082607 0.020991564
0.43527934 -0.094570383 0.020427808
0.44538608 -0.095670365 0.021495828
0.4558323 -0.094816402 0.020941442
0.46541288 -0.094516866 0.020834545
0.47494194 -0.094864786 0.021591756
0.48539907 -0.094333366 0.021610271
0.49522114 -0.095954634 0.021278987
0.50594252 -0.094215639 0.021392167
0.51523393 -0.094502844 0.0210956
0.52340055 -0.095733806 0.021480858
0.53418201 -0.094435021 0.020907385
0.54844838 -0.095847547 0.021376928
0.55439889 -0.094128706 0.021639556
0.56334656 -0.095557943 0.020264113
0.57521212 -0.095328391 0.021113932
0.58389211 -0.095041297 0.020654768
0.59261554 -0.09474282 0.020161778
0.60453665 -0.094410338 0.020717215
0.61230826 -0.09465079 0.020889044
0.62441182 -0.094882429 0.021002203
0.63449192 -0.09416534 0.021579931
0.64304918 -0.094402082 0.020687032
0.65500909 -0.095717192 0.022419881
0.66539168 -0.094619952 0.022264937
0.67606896 -0.095252074 0.02243959
0.68582553 -0.094303064 0.022311032
0.69564128 -0.095668353 0.021952489
0.70466411 -0.092795089 0.021751016
0.71452457 -0.095445618 0.021836661
0.72424334 -0.096386649 0.021677673
0.73516464 -0.094799377 0.023750195
0.74679595 -0.094863676 0.024985114
0.75611877 -0.093724445 0.026070282
0.76495475 -0.09646748 0.025940442
0.77290249 -0.092832588 0.026701355
0.78444129 -0.09516535 0.027366677
0.79577315 -0.096932545 0.029406548
0.80161881 -0.094230622 0.029366344
0.8723492 -0.092564702 0.020787954
0.88693923 -0.094292581 0.020826936
0.8928284 -0.096604705 0.020333648
0.90131164 -0.097952902 0.021023601
0.91757625 -0.093996145 0.020610293
0.92528486 -0.094939083 0.020713627
0.93361741 -0.094016016 0.020751327
0.95730418 -0.09266001 0.020283878
0.9653222 -0.095819853 0.022228539
0.97383964 -0.093996122 0.022328222
0.98351204 -0.096380353 0.021819711
0.99071443 -0.094822168 0.020958394
1.0047293 -0.094819278 0.022733822
1.0136139 -0.09496823 0.024033487
1.0249965 -0.099300206 0.026259452
1.1308346 -0.091470182 0.028425813
1.1435251 -0.091443896 0.029967189
1.1555823 -0.095681697 0.029716611
1.1634973 -0.095413841 0.028197944
1.1760978 -0.095096149 0.026255533
1.1839286 -0.096375301 0.024353523
1.1924317 -0.097092122 0.022584915
0.38633516 -0.084362373 0.020073175
0.40973538 -0.08556094 0.021330446
0.41471466 -0.086890936 0.021047901
0.42573544 -0.086185098 0.020799041
0.43464455 -0.085215531 0.020611187
0.44710937 -0.085216507 0.020809721
0.45504978 -0.085104935 0.020671576
0.46453765 -0.085611448 0.020499513
0.47404128 -0.084869817 0.021256482
0.48546967 -0.085238867 0.021444244
0.49823165 -0.085209668 0.022307515
0.5062477 -0.08509329 0.02109105
0.51564169 -0.084061593 0.021691218
0.52216458 -0.085693024 0.020838341
0.53376925 -0.08446455 0.021084344
0.54409313 -0.083020881 0.021498898
0.55442882 -0.085454226 0.021689015
0.56592637 -0.086145774 0.020517349
0.57501364 -0.084391989 0.020432711
0.5848732 -0.085917473 0.021094779
0.59578878 -0.084311374 0.020412823
0.60640556 -0.085983656 0.021533737
0.61500704 -0.083382405 0.021058952
0.62541497 -0.085547395 0.021433294
0.63292372 -0.083448209 0.021544674
0.64120632 -0.086093917 0.020432413
0.65559024 -0.085093826 0.02203536
0.66826755 -0.085491024 0.024184307
0.67641431 -0.085849479 0.023015618
0.68686658 -0.083931267 0.02370891
0.69472682 -0.086105168 0.022364482
0.70540369 -0.084410332 0.021375334
0.7137177 -0.08414638 0.022286251
0.72431153 -0.085543022 0.02302691
0.73663878 -0.084965594 0.024466842
0.74794483 -0.085036203 0.0268071
0.75370866 -0.084120966 0.026972333
0.76308376 -0.08545512 0.027811507
0.77526933 -0.08369676 0.028470049
0.78730875 -0.085295722 0.028642822
0.79597658 -0.084736943 0.029095709
0.80201459 -0.083794296 0.02925841
0.87325341 -0.086779147 0.020109534
0.9276728 -0.087538779 0.020523906
0.93568933 -0.084404737 0.021006614
0.94558269 -0.081903219 0.020484507
